ply
format ascii 1.0
element vertex 518
property float x
property float y
property float z
property uchar red
property uchar green
property uchar blue
end_header
1.2457801272428706 -1.121727099129095 5.910933587630715 255 255 255
0.848809222728066 -0.7666794461756148 4.128981835944128 255 255 255
-0.6615389619060149 -6.389340610555658 47.69785624970701 255 255 255
-0.5323051339754624 -7.832502594442228 61.411770108495816 255 255 255
-2.091682068455939 -3.86429249196903 35.986399526957776 255 255 255
0.7023497828455967 -0.7765744883838179 18.83647173685172 255 255 255
-1.5202750663845375 -0.8234782401289021 21.4833514041104 255 255 255
-2.916687360811782 -0.11138944078078215 -60.05406854078118 255 255 255
-0.4187778396223046 -1.1116755944051289 10.283822640692199 255 255 255
-2.275007292636547 -3.908929657423889 39.3368546004134 255 255 255
0.1364089906029314 2.6440708052422597 -27.726398506509813 255 255 255
0.018353178030916305 0.08014585543616695 -0.9814402975634496 255 255 255
-3.9585915767089412 -5.935541683459976 70.6136997431966 255 255 255
-0.6906282721334853 -0.591262548495235 9.012106292161835 255 255 255
-1.3493654207333547 -0.7934503913916185 17.543654604284463 255 255 255
0.5756645445516565 -0.7005523233691842 18.435017676229567 255 255 255
-1.932953881658441 -1.055307242005648 28.494452770819418 255 255 255
0.6126323641801712 -0.6492548709552333 21.192526232380317 255 255 255
-1.9409209244819603 -0.9111208469075536 30.349254387987518 255 255 255
0.45141579290916595 -0.5994630682675676 20.560165382944714 255 255 255
-2.0253388368315743 -0.9406502072997805 35.51461529559496 255 255 255
246.5437219210902 143.39719764364054 -5967.215379873209 255 255 255
-1.0410773021915511 -1.122732879854769 48.090819177715446 255 255 255
-4.325741127224784 -23.49384978765139 188.35425989082017 255 255 255
-1.163543179786721 -0.9400964196410155 12.43670754601751 255 255 255
-0.9523186237290447 -7.0578926083529065 53.60224656260674 255 255 255
-0.5842294287674615 -7.256816266780247 55.36246697669149 255 255 255
-0.746749982119716 -13.670532506159164 112.19226309361075 255 255 255
-0.776691633342995 -3.7413650210709344 30.881162755466484 255 255 255
-0.32028519535395894 -6.33653260221021 54.972932453377965 255 255 255
-2.511271157315048 -18.196638510731255 158.63471675779778 255 255 255
-1.8569860464988777 -3.23806006679441 29.579990125510683 255 255 255
-0.4310218196597494 -1.1568051288740098 10.733407723753713 255 255 255
0.08490852510057238 7.265490661612121 -69.19223572611443 255 255 255
-0.028100789069993044 2.87090931541679 -29.54605294873064 255 255 255
0.18567357016911293 2.8974754048404647 -30.723990166412552 255 255 255
-0.7091828268662644 -1.0937280969969392 12.908530493540338 255 255 255
-0.9841184376777055 -0.8880722230014989 11.084753907999131 255 255 255
-1.5366842765561073 -1.7690298186384132 22.21879872607118 255 255 255
0.013697325885028543 0.5694325477272462 -8.09678207119175 255 255 255
-1.123604345720288 -0.8371097975659053 12.64911985607909 255 255 255
-0.6516407674786718 -0.5569099765661856 8.543140217623176 255 255 255
0.0852478595893373 -0.5245769526369112 8.284651585232723 255 255 255
0.003712360660453787 -0.53747812891963 8.48175139345109 255 255 255
-1.1873092681186717 -0.7840852952914047 13.985695259012653 255 255 255
0.21488356211715404 -0.4763342078381672 8.740428072862942 255 255 255
0.3157604019516877 -0.5339697724524359 9.781394909327258 255 255 255
-1.3808776081475207 -0.7850386905614788 16.386529920252517 255 255 255
-1.353637652195752 -0.8128653701350785 17.65943925808527 255 255 255
0.6047324126513436 -0.7886570483710408 17.151174236649517 255 255 255
-1.602556220443139 -0.8346864769882322 21.2400195571014 255 255 255
-1.5183039900737134 -0.836056723331707 22.352351069528062 255 255 255
0.638616271837888 -0.6583780054401245 21.496304170902036 255 255 255
0.4255424550471069 -0.5883279120942347 19.85768332940477 255 255 255
-2.0067285363594576 -0.9224131146532684 31.14675538365164 255 255 255
-2.0836865451941686 -0.9955844130665904 37.13384484755572 255 255 255
0.4970528633816489 -0.43968226271650934 17.747029899784085 255 255 255
-4.412430977840157 -2.56989643246713 106.21100007759202 255 255 255
-1.5550048376449306 -1.6806807444332368 71.35954408825737 255 255 255
-2.353213008055282 -0.8246290004171732 37.42432434070103 255 255 255
-1.7577678532632708 -2.9665393634591624 27.63912687663768 255 255 255
2.1048728893424276 64.6749579450388 -618.5567943008708 255 255 255
0.19571613230639395 2.0309612020858 -21.643691198708087 255 255 255
25.268833419105935 42.45528743848496 -476.72604142795694 255 255 255
-0.08504273434503411 -0.4207732493650613 4.723750176356782 255 255 255
-1.459932581343259 -5.101473442037241 65.34308481103396 255 255 255
0.0022139439293491414 0.016033637727706204 -0.20519655131651157 255 255 255
0.0007553050262116526 0.5346737313967858 -7.468658725773534 255 255 255
0.23941504999676771 -0.5302898112085526 10.01186571553915 255 255 255
-1.1497309933129674 -0.733301732398997 15.110630626364049 255 255 255
0.5463851601122847 -0.7533434126386005 16.67916309374186 255 255 255
0.38215686203853483 -0.5793856369664424 18.935811812634554 255 255 255
-2.3292290169071403 -1.0125811696908924 35.52534990841644 255 255 255
-1.9044638704142556 -0.946604100520763 35.29703761758522 255 255 255
0.5706820604463758 -0.4769151010652624 18.654973317059035 255 255 255
-1.3870024682763098 -2.8190720351538214 24.54588318272772 255 255 255
-1.7430257663121724 -1.897586418636432 23.757024270488483 255 255 255
-0.07262175755995166 0.4502957390864002 -6.936954390793555 255 255 255
-0.7778473565999525 -7.034904820922144 54.55546604709611 255 255 255
-0.8430058021458099 -3.583484215951828 28.833829706181827 255 255 255
-0.6722125644606435 -29.51621061876601 250.64920036881495 255 255 255
-0.7164614011692408 -4.816719436170823 43.04046610797716 255 255 255
-0.4206682298863788 -1.1725890360517521 10.749216697978502 255 255 255
-0.0031921824105997434 0.633469018326332 -6.818070323521377 255 255 255
-2.484940242999748 -3.2667083944778077 36.598213290536336 255 255 255
-0.24907933523086062 -0.43360017268214873 4.870066647674182 255 255 255
-0.014572315081012213 -0.07253210259332159 0.9698773235642317 255 255 255
-0.018631125335544355 0.659242143287301 -9.07594657353715 255 255 255
-0.38519702070885825 -0.4143959605686396 5.8990880740882154 255 255 255
-1.1130152358176688 -0.7845499224511457 12.99277462055668 255 255 255
-0.013450744148927322 0.5434745694383208 -9.611230506510955 255 255 255
0.4839812473182952 -0.7137168748717814 15.938313355064288 255 255 255
0.37563067315976145 -0.6228905169496826 20.740295183483635 255 255 255
0.6626747211580304 -0.5330995129378454 20.364772425809047 255 255 255
-1.834236770521641 -0.931636502619738 35.531311200071556 255 255 255
-2.2021609876255144 -2.143380951301801 89.2368885606733 255 255 255
-0.4339064707045267 -0.8677928011054105 41.873253626179455 255 255 255
-1.1603455407465877 -1.018484999226674 14.276473410723565 255 255 255
0.39516682021349264 -0.7091496903274128 15.775188149742409 255 255 255
-1.597020645619263 -0.9677347635564809 33.74258360832574 255 255 255
-0.07540594744620442 0.8962026075994399 -12.086687813242634 255 255 255
-0.06784696603465973 -0.24682961445456325 3.5435009453110538 255 255 255
-2.6811059406675053 -0.9157817741449872 37.732456314708266 255 255 255
47.62225457250778 4.014684683328246 0.07516349982058203 255 255 255
47.600722054730554 4.059882507701171 0.0743782410412627 255 255 255
47.68020662630962 4.041800782495747 0.06983472691218158 255 255 255
47.3365518750372 4.535777738187015 0.06975857549518599 255 255 255
39.969536279454424 15.797715186444684 0.1047716416359638 255 255 255
39.665932306774295 16.238426733289316 0.10197138917213958 255 255 255
36.15784746013449 21.408045384002968 0.11276375144782685 255 255 255
35.82491311272209 21.89843922411744 0.11348769913352101 255 255 255
36.27202466059264 21.206746812843214 0.09495565864109207 255 255 255
35.647115280368666 22.13841344799673 0.08884382610882438 255 255 255
35.756862208660365 21.905703754668405 0.07878799923174888 255 255 255
30.90202784234955 29.142634468354778 0.10215840205290988 255 255 255
47.244725122568276 4.605431989223963 0.07295879072471448 255 255 255
47.14336998531061 4.788141399810794 0.07119995305570784 255 255 255
45.74386233611818 6.768794231940294 0.07300172843274431 255 255 255
38.37869438007363 18.12073000124886 0.1019925749358682 255 255 255
38.47067844496673 17.985277015256976 0.10080073726477291 255 255 255
35.56522647528845 22.26549262001408 0.11077158540404891 255 255 255
37.62092368693702 19.245297003534585 0.09491066148972109 255 255 255
35.84012140359547 21.877281707916403 0.10532088550706914 255 255 255
35.47658657059755 22.379177613352145 0.10668209298971504 255 255 255
36.632152644181154 20.660849911503316 0.09632353340509936 255 255 255
36.029620391404265 21.576768258431176 0.09619438861815095 255 255 255
32.279288235739706 27.16638101977012 0.11568235705569445 255 255 255
32.64944421013717 26.645753091580495 0.10740264843032944 255 255 255
35.706870168916026 21.983244729636557 0.085709258947478 255 255 255
31.16282999098783 28.777041193043605 0.10366789397906288 255 255 255
31.12970065066563 28.861865847917002 0.10027064906929514 255 255 255
34.55773695650872 23.660836912850854 0.07988338355285916 255 255 255
30.888145553681678 29.12229928713831 0.0975999754233466 255 255 255
31.05003844275301 28.88967078277484 0.09516139740340293 255 255 255
32.624926362762686 26.556068487062294 0.08669971158370164 255 255 255
30.5682209617878 29.599407615403244 0.09561225241010678 255 255 255
32.669466777281194 26.485501797850834 0.08520831708952903 255 255 255
46.55694735112928 5.6529945323063755 0.06946036015025363 255 255 255
45.162165975563006 7.707032597690259 0.0674556240274778 255 255 255
38.99914359191809 17.214221664651273 0.10569664485327736 255 255 255
35.365839881302975 22.477221141307183 0.07941566693723551 255 255 255
30.861451248451292 29.20247947413402 0.10221744151959679 255 255 255
46.34102871396049 5.879775740007416 0.07427865087645064 255 255 255
45.72681536309401 6.793416881913544 0.07293182310187252 255 255 255
45.78210009891458 6.78673781076923 0.06944603569415936 255 255 255
39.67273084908456 16.224987294411985 0.10542866948492573 255 255 255
39.867856983561886 15.942085698525052 0.10323217503209657 255 255 255
39.35180647437838 16.690837397980317 0.10031452067043367 255 255 255
38.52321757921303 17.914987626952698 0.10525790842238471 255 255 255
38.48596733370835 17.960407417447293 0.10146350191696023 255 255 255
38.844374160187 17.437733447346325 0.09871543429536775 255 255 255
36.76533795862434 20.521870046205663 0.1150855810865271 255 255 255
36.04279955836922 21.582801985242245 0.1147487126390822 255 255 255
38.39021278987315 18.11145382839571 0.09564766920717784 255 255 255
37.95172571829802 18.748851010270283 0.09369349919466337 255 255 255
37.50162227391942 19.412169017927905 0.0949528176761527 255 255 255
35.78369235398655 21.958403898827754 0.10517797761126127 255 255 255
34.62569921126881 23.667811122967965 0.10668019103240467 255 255 255
35.044268587815075 23.047180617659404 0.10321533748280498 255 255 255
34.08946051436079 24.457535361060046 0.1091124206841314 255 255 255
32.860674063181115 26.345532377533814 0.11500825467213578 255 255 255
33.51265946230996 25.30257066368552 0.10922985874347153 255 255 255
36.0047368340644 21.606579450334056 0.08952652598291076 255 255 255
32.66617591251963 26.623052693984807 0.10708776249504053 255 255 255
36.06763218085632 21.444376194338872 0.08487845677843758 255 255 255
36.20939274549733 21.221778076857866 0.08166812256468946 255 255 255
35.916178416949855 21.65517331037845 0.08307016673786041 255 255 255
31.4579416375089 28.365180593094617 0.10834462654183104 255 255 255
30.9468220954078 29.093445233161173 0.10651007799735804 255 255 255
31.218292925798316 28.694942624920355 0.10382912516597385 255 255 255
31.156922260186864 28.757469155524497 0.09989825206147655 255 255 255
34.5664349430607 23.647372639198572 0.08004614425849879 255 255 255
34.624488728677235 23.55914458281177 0.07839114800190804 255 255 255
30.837629873195738 29.199189257952508 0.09764139846694123 255 255 255
30.99196608384698 27.57095536595278 0.0898180338899187 255 255 255
32.5995892069905 26.59299297936882 0.08674590297806208 255 255 255
32.734567610312176 26.390948028733334 0.0851707152818459 255 255 255
30.492320843669038 29.70520098709585 0.09574222854235954 255 255 255
36.74962916912941 20.540183833095885 0.11373551205507848 255 255 255
35.8295241486779 21.89192562175776 0.11442174678992098 255 255 255
38.24967043577341 18.317279205626555 0.09609493430834669 255 255 255
37.849759984209726 18.897464929541968 0.093236846482563 255 255 255
37.382431439676644 19.59245709941554 0.09563915521530533 255 255 255
36.51731893865753 20.85562172337807 0.09622605285233668 255 255 255
35.87785287569121 21.80781545865225 0.09282358689374579 255 255 255
36.10316841699206 21.405382860348713 0.08539168416860499 255 255 255
35.399901429020076 22.431630109105246 0.08617301295996536 255 255 255
31.58560089484157 28.190077392563634 0.10845068183800814 255 255 255
35.82605863769134 21.79292092517236 0.08289756849778297 255 255 255
35.864050028291786 21.774659325813364 0.08012555897418122 255 255 255
34.5664155549897 23.647825243986123 0.08040783686565293 255 255 255
34.725220685305466 23.411787008095843 0.07804811270729423 255 255 255
30.699761036279153 29.403226765311025 0.0977191890995193 255 255 255
31.22882900216113 28.622702155843577 0.09448284573595482 255 255 255
32.785785002734805 26.312596448230554 0.08477277546891156 255 255 255
35.09170357122689 22.915634417423178 0.10730228155311254 255 255 255
31.43830740002564 28.36730865425881 0.10409768937193485 255 255 255
38.605479806771875 17.799140125794207 0.10715133763869225 255 255 255
39.1860596018718 16.936784379149486 0.09844617936913394 255 255 255
38.21759361139165 18.358896271305312 0.10096516234646767 255 255 255
36.72781854812399 20.62757716440471 0.10291321496354035 255 255 255
34.22366762120954 24.258612560262094 0.11155298680363548 255 255 255
35.40623748051395 22.51148821950732 0.10416598234506078 255 255 255
35.81264787278766 21.90712481597712 0.09326983578521574 255 255 255
32.77818600627645 26.458086242844544 0.11227575190781829 255 255 255
36.28561073859629 21.192482947254007 0.0889930320358191 255 255 255
31.701938379816195 28.006998424149643 0.10949621860222965 255 255 255
35.66005492597162 22.04689832493362 0.0804689532475833 255 255 255
31.400123370989792 28.40326734068685 0.10155112386158945 255 255 255
34.80311233282981 23.298469897885546 0.07776310594961704 255 255 255
33.709041266577216 24.992201682901875 0.08279068837504996 255 255 255
31.31485768361968 28.49207984223079 0.09385284113676427 255 255 255
32.42207194854757 26.8472364074333 0.08771960871200746 255 255 255
32.57263171609786 26.61834453665816 0.08367616956492656 255 255 255
28.93097548629683 31.921064669002575 0.08882124639668841 255 255 255
36.84108225238989 20.431924593398453 0.10301707375313851 255 255 255
35.417057903941114 22.490259750984244 0.09360088142322938 255 255 255
33.62941005355318 25.02395909029021 0.1022037483360344 255 255 255
33.045518852027804 25.916978457181187 0.08347737665231204 255 255 255
36.507836216984806 20.872970333264096 0.1099667919834949 255 255 255
37.841556854912646 18.921383415532468 0.09708382721380544 255 255 255
34.426598494652495 23.96447285692213 0.11381539881866383 255 255 255
36.55997982048726 20.787754073655037 0.08834641425220663 255 255 255
35.44432274813831 22.362791181924333 0.08142395725390278 255 255 255
31.671806638577856 27.96873417219407 0.09328798483090336 255 255 255
34.853391617740506 23.21855043465871 0.07671136370796865 255 255 255
30.15317676404991 30.2056785083752 0.09821651163664859 255 255 255
32.447995790372644 26.885595730419503 0.10752717271578716 255 255 255
-110.81654616178191 -36.957647718484424 -0.2845383821424826 255 255 255
-110.46080390926194 -38.53920873521556 -0.27812025446544747 255 255 255
-106.50631101115899 -55.63675146024333 -0.32221910773154194 255 255 255
-106.51029713749833 -55.637777129593196 -0.2714208383120564 255 255 255
-105.74586514831047 -58.936605810002945 -0.256186845320996 255 255 255
-106.36122104164846 -58.80253768955059 -0.2282355561743074 255 255 255
-122.57839807094815 -13.06676278788338 -0.19461646815826017 255 255 255
-109.1586583838215 -44.73956940167789 -0.2832891687212279 255 255 255
-109.17429009181475 -44.27081790605594 -0.27942469566399525 255 255 255
-106.3298070053617 -55.711144013854486 -0.3189427284190449 255 255 255
-108.12458359481839 -48.432281812474784 -0.26588600165771153 255 255 255
-107.04436820601433 -53.31687254514055 -0.2736758825760688 255 255 255
-99.47201482729841 -83.2518187033795 -0.31678471442823053 255 255 255
-104.88579508719721 -65.30018411172597 -0.2355609180861065 255 255 255
-99.48310413637532 -85.45656104952563 -0.30133450091254704 255 255 255
-99.60335988743222 -84.5045073469735 -0.2929128343626764 255 255 255
-101.8887644828682 -75.39558584204423 -0.2610720397551028 255 255 255
-102.0031185293316 -75.11754991446807 -0.2564857580743978 255 255 255
-109.85352473362137 -41.55021375593447 -0.2909693751533613 255 255 255
-105.87547020127646 -60.94401651528756 -0.23141939508340975 255 255 255
-99.15821226666453 -85.17033735379242 -0.31425061001170407 255 255 255
-110.5895450341783 -38.35618646253444 -0.2876775411086341 255 255 255
-110.71529829593021 -37.46358335922178 -0.280784098764922 255 255 255
-110.25209038428468 -39.8487286938397 -0.2748787661845554 255 255 255
-109.26968109174545 -43.9740640815778 -0.2916121297757646 255 255 255
-109.15418983098596 -44.1496795680436 -0.2810855916198798 255 255 255
-109.61034543220866 -42.529439543049 -0.27238218233857936 255 255 255
-107.20941543600058 -52.479464882444454 -0.32601477575094273 255 255 255
-106.3675672447424 -56.151251139729446 -0.32828339522871186 255 255 255
-108.54400461894724 -46.85153541788346 -0.26147051864366044 255 255 255
-108.00453534249209 -48.978648608358924 -0.2664450904365123 255 255 255
-105.88259162252292 -57.30578652130798 -0.30132124978405805 255 255 255
-103.34447015058399 -70.357483471802 -0.32504348195561794 255 255 255
-106.17108209729777 -57.08129499045212 -0.25687267856697465 255 255 255
-101.0176600343376 -73.63485459876449 -0.31734142190679904 255 255 255
-106.81545094197031 -57.0095346993544 -0.24480020719675327 255 255 255
-105.73241968082183 -58.46358373225895 -0.2468736306174326 255 255 255
-107.13771522777259 -56.55272380079803 -0.23563943620365663 255 255 255
-106.79664844027417 -57.909742132490955 -0.2405267288759744 255 255 255
-100.93767789583904 -81.96489167954535 -0.33228734585517566 255 255 255
-106.57579803984747 -57.86287647715184 -0.2304202590113416 255 255 255
-99.53222143311096 -82.97625170161349 -0.3170788972781437 255 255 255
-99.63364104708153 -83.54620060467448 -0.3061482955427097 255 255 255
-99.40044154866015 -85.7265982852379 -0.30160655207740056 255 255 255
-99.66373758522725 -84.22603924048454 -0.2922678162135037 255 255 255
-100.16887575350978 -79.80549241078715 -0.27708617031480354 255 255 255
-101.87177920642934 -75.51969657616807 -0.2613127706782562 255 255 255
-102.05767114253639 -74.81438497037185 -0.25615688480095833 255 255 255
-98.84143156643053 -87.86197431846469 -0.29725763309856196 255 255 255
-107.22133291772923 -52.57632888009894 -0.3223714689978696 255 255 255
-106.14982314690391 -57.24701285647673 -0.3284002625903356 255 255 255
-108.84873175447466 -45.277329692497666 -0.26690999254471787 255 255 255
-108.4618055274084 -47.31398177520632 -0.2605883944809176 255 255 255
-107.80191697251966 -49.696651217531425 -0.2687876202321971 255 255 255
-106.70181725137668 -54.37616220518971 -0.2738862858016164 255 255 255
-105.9644721707315 -57.65126677711356 -0.26657022744278897 255 255 255
-101.6220559195092 -79.91820947609592 -0.33071884840977106 255 255 255
-106.69222393770836 -58.55062608399734 -0.2404901565099898 255 255 255
-104.87934137724783 -65.23814564137022 -0.2370362954845051 255 255 255
-105.08902214707697 -64.36250775321614 -0.2295556265343424 255 255 255
-99.18817513947796 -86.54851145004768 -0.30242263312743634 255 255 255
-99.87891169880999 -83.51802595892973 -0.29022330843996963 255 255 255
-102.1540542622174 -74.34096547284575 -0.2546001548807121 255 255 255
-99.67944371731906 -82.0288658318743 -0.31716224501913975 255 255 255
-109.33396626624408 -43.46821148311434 -0.2963416367349461 255 255 255
-109.95528438601781 -40.88039079744599 -0.270320599936761 255 255 255
-109.02470446607283 -45.31394690628289 -0.2809260235424257 255 255 255
-107.13778382469253 -52.95993177643076 -0.31813044569541615 255 255 255
-107.57538011879087 -52.0382419004572 -0.29159202333400575 255 255 255
-103.87037365367567 -66.08820175959191 -0.32720729651789937 255 255 255
-105.38432526278667 -59.47427136102862 -0.30016948552628064 255 255 255
-105.79256760868137 -58.12912884391052 -0.2680532722741319 255 255 255
-101.52180501999702 -73.79606822515224 -0.3342698339166605 255 255 255
-106.53557877660127 -55.65952716670183 -0.2544231892415482 255 255 255
-99.76171311271507 -79.76150356113145 -0.3303617025593196 255 255 255
-106.2593990518952 -59.26234449689316 -0.23341607007296175 255 255 255
-100.05235239650746 -82.15486651279183 -0.3102877072364212 255 255 255
-105.15798044439045 -64.0000532992726 -0.22847245010893463 255 255 255
-101.66657411744895 -76.88497333312903 -0.26548231553488616 255 255 255
-102.37525319654458 -74.95086697902323 -0.25215930959433125 255 255 255
-97.26617338987758 -99.4169677126623 -0.28657483239979387 255 255 255
-101.21360826702247 -75.06526242682679 -0.3304694010607903 255 255 255
-106.40114520475076 -61.30496212776162 -0.27385438292348485 255 255 255
-103.98927670799027 -69.63084972808076 -0.3047108083197625 255 255 255
-102.59538343377355 -73.43440566831471 -0.250661482847819 255 255 255
-104.07496933085928 -65.03551091440667 -0.3328088777368201 255 255 255
-106.8792359569974 -54.27855799845154 -0.2516710105487964 255 255 255
-105.26263555744897 -63.74406233544811 -0.22531432543308272 255 255 255
-98.42196796501912 -89.8546315385503 -0.3064904787680988 255 255 255
44.82786941224611 15.622331349079191 0.07200107892706636 255 255 255
46.70671420072985 19.350696213601612 0.07059457887906602 255 255 255
48.805361275589036 20.601979483976816 0.1290719210247652 255 255 255
56.999287425377275 31.699888628035346 0.15384936066312227 255 255 255
56.92330139588057 35.961616516214335 0.1805465590158258 255 255 255
56.098414782502886 35.87036028699355 0.15028830061336787 255 255 255
75.09206144217544 70.91762574372578 0.24523421520776673 255 255 255
51.45616290598303 25.715044969149613 0.1381659331692285 255 255 255
56.896417456264274 35.93645983032509 0.1788006116253409 255 255 255
52.62972273981013 27.89962829738338 0.13375283358602286 255 255 255
59.72162155256226 41.975529308436265 0.13920042998187665 255 255 255
70.98641697940077 62.9455232942718 0.20543192700034874 255 255 255
40.270693199556256 6.366194590634256 0.060307783087290505 255 255 255
50.525267989713456 23.92379043551287 0.1385140459995634 255 255 255
41.11943503019001 8.567615871973764 0.06607150957850315 255 255 255
49.292677727592185 21.548841506963925 0.1322482682441707 255 255 255
48.92549603686353 20.840869257209306 0.12779103939868444 255 255 255
49.590566452368655 22.107554619862963 0.12737319616436688 255 255 255
51.39733762083504 25.580684599320136 0.1421381401631175 255 255 255
51.24847843864057 25.25839336843511 0.1364311021965946 255 255 255
50.495568660731 23.842862521216652 0.12941001089239773 255 255 255
55.553960769274454 33.33028239733921 0.17691712066681445 255 255 255
57.373259156297806 36.805300005306236 0.186019814810053 255 255 255
51.90820501710826 26.527302473788716 0.12899620343995466 255 255 255
55.48737340144392 33.2275435208171 0.14794914963278924 255 255 255
59.27710177237419 40.14336865697148 0.17612870923943047 255 255 255
63.03803490498069 47.68587399912931 0.2054228179623494 255 255 255
67.51549004547972 55.5407530257702 0.22215101444374394 255 255 255
56.813329553845435 36.13948634482067 0.13765242339779743 255 255 255
72.84077975457244 66.70638320770409 0.25261309132027066 255 255 255
75.04195439174484 70.32681637676016 0.25179598890826294 255 255 255
76.92405644008167 74.42768629329036 0.24605198520538124 255 255 255
75.10280728575971 70.89012717418532 0.23141503118566692 255 255 255
66.80737765961726 55.23954966471518 0.17872576407413626 255 255 255
66.02439613129778 53.70715557854334 0.17238607955906998 255 255 255
49.28990011680499 21.543779229958826 0.13055422315962262 255 255 255
55.50585833767822 33.266496629397736 0.17466989473687408 255 255 255
57.8957531793476 37.8147913179844 0.1882841175839396 255 255 255
51.42412931100625 25.585884005340922 0.13011057613523133 255 255 255
52.083324272637284 26.866309892915353 0.12912955938162052 255 255 255
53.263320172688225 29.1142623867532 0.13750355552904253 255 255 255
55.340104090662244 33.00115071330148 0.1473731668623246 255 255 255
56.66510828735161 35.65476282987975 0.14796352326712878 255 255 255
56.058489048551166 34.53922993240119 0.13991088081463104 255 255 255
55.89131125371697 34.23797690960707 0.13331156731312105 255 255 255
57.58071058103427 37.41687523160739 0.14117116449061226 255 255 255
72.0381484350589 65.23395558194906 0.24893336715603304 255 255 255
56.39496173133798 35.296771415699524 0.13148841362215719 255 255 255
60.11275471001791 45.71570817453203 0.1447185235004873 255 255 255
77.82705105240125 76.16520350492249 0.25028454312679393 255 255 255
51.32257866190947 25.419128394664646 0.1442494382511214 255 255 255
49.868969419443985 22.6285123164684 0.12624098195892738 255 255 255
51.64979053026884 26.056169115097443 0.13770244221554945 255 255 255
54.30679421176391 30.846839292890397 0.1663608129475681 255 255 255
54.51319881106063 31.510055828464374 0.15379746488169052 255 255 255
58.29815362087107 38.68514586190954 0.1736363088111501 255 255 255
56.913555932162666 36.09758466021174 0.149679127920387 255 255 255
68.35597599145737 57.26405620682211 0.2375913882214081 255 255 255
55.873866586390335 34.158411397745255 0.13417447093043372 255 255 255
72.82584435703183 66.89902104782207 0.2371551789074358 255 255 255
68.50331114329137 58.651876442741354 0.1878681151296953 255 255 255
65.86552784945333 53.57803673058561 0.16889505568854957 255 255 255
88.83646179477813 98.13208735530226 0.27291148287569766 255 255 255
58.01311172293019 38.24889825003355 0.15497127747971182 255 255 255
66.05377091067261 54.0401082767841 0.20788763727865134 255 255 255
52.46145183653 27.58742557372313 0.13594857989429657 255 255 255
54.891795692809715 32.25610487233584 0.133706756907887 255 255 255
79.16781731096775 78.93829522070008 0.2572770056763952 255 255 255
36.08631344796267 15.212733503173423 0.05767663266974178 255 255 255
33.92520386494674 14.618523720459253 0.05090589757576175 255 255 255
36.7122732533801 24.422169491336547 0.10483794198909234 255 255 255
33.52944500307721 45.42491259286662 0.14061714654456556 255 255 255
35.719760722820624 25.19836002954388 0.09832623694959053 255 255 255
35.121360977001714 29.498636899274196 0.08507442839394844 255 255 255
33.82152742290466 17.681149383039273 0.053147499577499216 255 255 255
33.95679756367233 17.8465006692711 0.05312179132044606 255 255 255
33.428135061730885 22.494711361329507 0.05681671488707664 255 255 255
35.9155004679157 24.198044555016907 0.10268563304460337 255 255 255
35.68599208963523 26.85142675704147 0.11733631170838567 255 255 255
35.33028254473946 25.569370080554965 0.09663728041168716 255 255 255
35.81517707036407 24.330090644528685 0.09873488229323829 255 255 255
31.824879090955523 33.46671091083298 0.11483673236742552 255 255 255
30.75841895175441 33.339562090668856 0.11026898821666369 255 255 255
35.645438263791625 25.612191593781873 0.10006560229590526 255 255 255
35.024640152399506 32.439998874180226 0.12136171770869462 255 255 255
35.13914697450147 23.623311303699253 0.08643848707343825 255 255 255
35.75554573848974 31.646541300129403 0.11983892895138626 255 255 255
35.35901820767153 27.11978709014869 0.08364505296469361 255 255 255
35.22369542559731 28.065486593151174 0.08560000164860015 255 255 255
31.731781186444017 28.696983445149687 0.0926264118690858 255 255 255
34.57656805361234 14.202844166273879 0.05345928170141677 255 255 255
33.42838716502684 22.483212184994713 0.05679294833517447 255 255 255
34.767222224410496 14.90658381576418 0.05460796641641566 255 255 255
35.57990842533986 30.373898917626082 0.1088399582219893 255 255 255
36.26089498762109 20.915166459062302 0.10318948430542463 255 255 255
36.392369592378635 20.06554565802082 0.09592869402422279 255 255 255
36.35779790117259 29.422298199475623 0.12567811102687934 255 255 255
36.25357064171289 20.856783426897056 0.09384917975449956 255 255 255
36.150370736070705 22.825625779346638 0.09569578982114854 255 255 255
33.72387173045552 27.897384039037167 0.11366123935138447 255 255 255
34.774898045856865 26.592150791953667 0.08993669613228403 255 255 255
31.713875322515186 36.65444661855662 0.1211341056598299 255 255 255
33.83219965275781 35.23302651357171 0.09307816662723976 255 255 255
35.72008617159926 32.91990787676583 0.12423055467057922 255 255 255
34.527753592623995 35.85905648464622 0.12159247817980452 255 255 255
34.565931796447295 36.15095963247135 0.1175417700807062 255 255 255
34.21487852818114 37.313804265175555 0.11361425915035883 255 255 255
35.82146501259806 27.912667582314757 0.12101578075573385 255 255 255
35.65159396514845 26.42615105207162 0.12030977294448773 255 255 255
36.06447027929332 20.347737204366624 0.09109439507216426 255 255 255
34.07011438798823 35.79285395796671 0.09136337531472612 255 255 255
35.28473051772076 27.272906404900578 0.10939860538199649 255 255 255
38.1290180162335 20.93188633353469 0.10336059099420422 255 255 255
31.587843507808607 46.96860333001867 0.0984143403000407 255 255 255
37.99135807270125 18.719124353313745 0.10349117098066646 255 255 255
33.8158854386355 38.57535948543817 0.10942031340732829 255 255 255
36.212432078377915 20.608783523542105 0.09540800240729232 255 255 255
31.785568716772225 46.02297314508878 0.09937921378290518 255 255 255
34.718095158781395 37.045153520338 0.11673990457026408 255 255 255
-21.580113294290875 -3.1911956603849263 -0.03174838893714122 255 255 255
-20.967498528160185 -3.4481855476284964 -0.031069714648284882 255 255 255
-18.250599028534086 -4.275944021059607 -0.044123218308199125 255 255 255
-13.88923538946106 -5.850595225838201 -0.04014136116209078 255 255 255
-14.042583333705206 -5.852204784348562 -0.04071560544759689 255 255 255
-14.385265665807854 -5.778738194235241 -0.034721279876217155 255 255 255
-10.478841655685365 -7.213904312724332 -0.030284876726266098 255 255 255
-16.6783792698786 -4.8758469797796025 -0.041325182552222305 255 255 255
-15.639619774154609 -5.265546446813867 -0.03671760960841109 255 255 255
-15.71255782966361 -5.362572815508335 -0.0308737260613281 255 255 255
-12.580011851454062 -6.454271315607725 -0.026491647409025588 255 255 255
-20.395562915080777 -3.652869443159169 -0.030609082299779312 255 255 255
-12.664781254342845 -6.473229988757671 -0.026868426376899374 255 255 255
-18.31554369108454 -4.253907690340813 -0.04575026990210523 255 255 255
-18.563176442512788 -4.156621514042309 -0.04523961251952028 255 255 255
-16.78171811553222 -4.837714808542086 -0.041296931101336046 255 255 255
-17.299111105300376 -4.6391824176416065 -0.041074183229716114 255 255 255
-14.329664476479392 -5.70557946340213 -0.03852808245522076 255 255 255
-15.96500863793452 -5.139594036297073 -0.03677885249110727 255 255 255
-15.536165163979462 -5.305612801380668 -0.03656670405179651 255 255 255
-11.717307549468552 -6.733399082688701 -0.03651632817505244 255 255 255
-11.19246566923622 -6.903607003846992 -0.033168155016356185 255 255 255
-14.222581738075421 -5.817225732378606 -0.030803694983679093 255 255 255
-16.119816670034346 -5.184951535419011 -0.03275130005329777 255 255 255
-10.831050084388249 -7.032962792851957 -0.032668759904472676 255 255 255
-12.058719949362827 -6.611921303815641 -0.029106541070206732 255 255 255
-16.37724907248342 -4.981141614443807 -0.03840910405728194 255 255 255
-15.861346559013914 -5.179211855777768 -0.03643316231273537 255 255 255
-14.322684743823121 -5.771845277593138 -0.03251063703208801 255 255 255
-15.944740220045944 -5.242760415601137 -0.0334395431507047 255 255 255
-11.118608476109667 -6.981144484728291 -0.033210089789493184 255 255 255
-11.706671874741607 -6.783777264086824 -0.03260857641022076 255 255 255
-13.63378556260333 -5.9527012307507 -0.03749953797992881 255 255 255
-11.706726173039463 -6.745689380264198 -0.03563228879647564 255 255 255
-15.686721349110082 -5.324323931030529 -0.034461874017665976 255 255 255
-11.979804967167748 -6.6916832673798385 -0.026340745372058973 255 255 255
-12.863896551106219 -6.3082127804588195 -0.03500726868525547 255 255 255
-13.703154648504103 -6.00454518600244 -0.03305291433190077 255 255 255
-11.85591572431423 -6.700329511106431 -0.03293261716435692 255 255 255
-12.68621342671271 -6.35054762303405 -0.03706841699889146 255 255 255
-16.948729694990046 -4.775173589364664 -0.03978083588886625 255 255 255
-12.710204425941528 -6.353422306991202 -0.03823141614027359 255 255 255
-29.143021787475607 5.391441023296152 -0.06170666448283606 255 255 255
-28.835629298293018 4.9320499799621995 -0.05948563738325318 255 255 255
-25.75539090557718 0.31680493523612024 -0.05942076655325822 255 255 255
-26.19151080004014 0.8919863570908295 -0.050472470893222654 255 255 255
-26.16433660266104 0.6407799433109189 -0.041596197149465934 255 255 255
-27.713245585241065 3.189379851519108 -0.05737246248449885 255 255 255
-26.110963711574374 0.8415940808656021 -0.05903717308492059 255 255 255
-26.97903288872076 2.123816736654141 -0.052113634446516004 255 255 255
-25.84933360465192 -0.059301168718953794 -0.04537357483208593 255 255 255
-24.62211141123852 -1.6738458702480548 -0.04063810292982 255 255 255
-31.13516581063436 7.6940497096365235 -0.04469290366048598 255 255 255
-26.70365627915774 1.3523325905322128 -0.04169548380623375 255 255 255
-28.870101519123708 4.960756262795848 -0.0615733708776662 255 255 255
-29.04162301785415 5.248650752739529 -0.060597968074941486 255 255 255
-28.216718899060048 3.966588116123221 -0.05633628124550086 255 255 255
-27.6300801564275 3.140810758191772 -0.05364399909691176 255 255 255
-27.266507075492694 2.5860720811667317 -0.05191060688414584 255 255 255
-26.241915198790807 0.45423449611735983 -0.04552695982715551 255 255 255
-27.526115557852084 2.415582488090782 -0.044656875344194526 255 255 255
-24.77332781488136 -1.4988756861030659 -0.04205615747381302 255 255 255
-22.822427747706143 -4.31744344665787 -0.049399371106559266 255 255 255
-22.940233491231663 -4.112769598106476 -0.048474207365619415 255 255 255
-22.67706477774346 -4.557778945539346 -0.04535725727581872 255 255 255
-22.81684384898553 -4.323953554332741 -0.04439440924391677 255 255 255
-24.790682851284007 -1.3543373196053539 -0.04167694354101732 255 255 255
-23.661820642514673 -3.0658096665508348 -0.041448465611054836 255 255 255
-27.454595850677613 2.7211511148106777 -0.05193572028532596 255 255 255
-25.879728628084873 0.4106838016196395 -0.04724887133258244 255 255 255
-27.363266325603018 2.2035299888012028 -0.04601463838099137 255 255 255
-23.166671254201482 -3.7636169264838637 -0.05099018116904817 255 255 255
-26.656781304079004 1.0723667828360646 -0.044305606624099304 255 255 255
-26.94779066087032 1.6478157415786754 -0.04131327936564827 255 255 255
-25.7861044048478 0.2573171508509463 -0.048976422552289144 255 255 255
-25.257549651990203 -0.5606473361658902 -0.05375018442310491 255 255 255
-22.90795418808885 -3.8432584090046698 -0.05131185565020361 255 255 255
-25.83253414370407 0.04885032314809749 -0.04507731334080145 255 255 255
-25.46849001946025 -0.23943464074754897 -0.048623620611404 255 255 255
-23.93288982928426 -2.606368952695271 -0.050525142037904175 255 255 255
-24.52544579622088 -1.456443999362712 -0.057941465906699616 255 255 255
-26.11767629058749 0.866026712228053 -0.05740344247689049 255 255 255
