ply
format ascii 1.0
element vertex 415
property float x
property float y
property float z
property uchar red
property uchar green
property uchar blue
end_header
-0.021684334993162677 0.02851945378102273 -0.9974246977819601 255 255 255
0.007448739995399705 0.12151665052119576 -0.9918504173825121 255 255 255
-0.02861002945626102 0.03003170509705625 -0.9973265266939472 255 255 255
-0.02763119867860543 0.024296952861853113 -0.9973695712679544 255 255 255
0.04285879980305691 0.02357561355056069 -0.9982173503183746 255 255 255
0.009445302396229576 0.12697549198634756 -0.9910984710930837 255 255 255
-0.019938633496291446 0.029960852817428163 -0.9972404839795364 255 255 255
0.04836643600835857 0.028929112786962828 -0.9981366254283726 255 255 255
0.014701330234340736 0.13311441392929596 -0.9903456357724483 255 255 255
-0.021163347809545267 0.028997311603745832 -0.9973622366581821 255 255 255
0.06475425023731608 0.030413069391608268 -0.9972317929545674 255 255 255
0.01135277523485196 0.13039959230740183 -0.990675510669513 255 255 255
0.01917783533259818 0.06995480229430191 -0.9965216989205243 255 255 255
0.07666819340841262 0.04605587350689553 -0.9959461793287486 255 255 255
0.042782531271050826 0.023141066345813473 -0.9982103692551325 255 255 255
0.08479482063206581 0.06017208116015211 -0.9935835106615282 255 255 255
0.06857028250356835 0.036994913399813915 -0.9964060879068884 255 255 255
0.08416492316372812 0.056098828014557026 -0.994215329923682 255 255 255
0.07645250546596884 0.04673607134047677 -0.9958897804880279 255 255 255
0.015126479218106805 0.07513738117567463 -0.9967887236300585 255 255 255
-0.01788778001703794 0.029332288453952297 -0.9973675299921474 255 255 255
-0.03220448792523622 0.025614480995985133 -0.9973576656972463 255 255 255
0.006448202627814809 0.11483450392476034 -0.9923051432852235 255 255 255
0.06833543097191813 0.037988793169002964 -0.9967721054119676 255 255 255
-0.030240485987068542 0.02504188918915031 -0.9973159858612537 255 255 255
0.018718726461495135 0.13085307522117534 -0.9907893579510203 255 255 255
0.025602662760147325 0.12038237687226354 -0.9907971341857496 255 255 255
-0.0018705188294687325 0.07226977578928441 -0.9970152569934243 255 255 255
-0.024844023614914744 0.04431520333968796 -0.9961931898138666 255 255 255
-0.006046272093778244 0.07393041390201015 -0.9969082946101332 255 255 255
0.05714624765126832 0.02729690165693265 -0.9978835720031894 255 255 255
0.022889665627508774 0.02344644401413948 -0.9992069184335056 255 255 255
0.02408247529428032 0.12430201798205812 -0.991666955015535 255 255 255
0.06524097828301635 0.030037471675579647 -0.9972383711939109 255 255 255
0.08023934063993542 0.07152346022300775 -0.9942061399034189 255 255 255
-0.029401781524236014 0.03002885203918184 -0.99734056524945 255 255 255
0.06383360776676594 0.022711860583234555 -0.9976484612843054 255 255 255
0.054981852703712454 0.027279719483180344 -0.9979783968138526 255 255 255
0.07456995106547343 0.06487425981310418 -0.9934898489974228 255 255 255
0.07568086973076697 0.049100142243458884 -0.9957029290236544 255 255 255
0.011546782990794802 0.020805771874690456 -0.9993939121787768 255 255 255
0.08387843475991232 0.04815289046926454 -0.9948446662416867 255 255 255
0.0491184547195205 0.08686507579491035 -0.9746225988154386 255 255 255
-0.030895455325792423 0.03745444291989231 -0.9968400265663335 255 255 255
0.0041873427022175455 0.10447828902787096 -0.9938762901555679 255 255 255
-0.0006089742430466349 0.055626733361397285 -0.9984239420340479 255 255 255
0.0067084560562265085 0.09448613655439711 -0.9947510211604959 255 255 255
0.022688395978778465 0.07726778507086207 -0.9939326442028211 255 255 255
0.029707234095323536 0.12338482703220738 -0.9904869051386771 255 255 255
0.06692484384765232 0.08870691450777449 -0.984836806464691 255 255 255
-0.024299593573612298 0.053811407110817056 -0.9940353735763408 255 255 255
0.02310358866200882 0.023562148928521556 -0.999248108979138 255 255 255
-0.010094627470399032 0.06257330998157605 -0.9940172240863724 255 255 255
0.0054821613272689005 0.09559444487983111 -0.9945571355966273 255 255 255
0.01652370860518915 0.11450660016886875 -0.9921921226974819 255 255 255
-0.03244211772149311 0.04459243378475293 -0.9962659878350615 255 255 255
0.058025386366454434 0.02700821791250824 -0.997842782597594 255 255 255
0.019131045697491866 0.08789472921814336 -0.995945707951924 255 255 255
0.0002644913286176872 0.07110148707927348 -0.9970906084899601 255 255 255
0.06644883990740082 0.0289969991964202 -0.9972640182457396 255 255 255
0.05015567247987425 0.08063636583309831 -0.9161475089317561 255 255 255
0.09248124851685142 0.07463079605327637 -0.990812607487129 255 255 255
0.08784022755302676 0.06568471808079818 -0.9926326390465081 255 255 255
0.009902574663649633 0.09416943627994684 -0.9949596469289193 255 255 255
0.03981154322397408 0.10695918453779225 -0.9923042616779242 255 255 255
-0.03007553744250002 0.044194980422898794 -0.996223958017 255 255 255
0.0018963994161113132 0.06970852025835939 -0.9970079980890191 255 255 255
0.025756876978136885 0.02330498164244905 -0.9986652456894856 255 255 255
-0.03190255514336285 0.053897829836579064 -0.9942694631982297 255 255 255
-0.000297052767740639 0.09744234529300269 -0.9947629738342253 255 255 255
0.06345734062839078 0.10581383993439623 -0.989996665910436 255 255 255
0.015058568983395084 0.1282956267372446 -0.9908926849375645 255 255 255
0.0627997025908589 0.10793406527190304 -0.9903401153557196 255 255 255
0.0755840847406216 0.0400245634799322 -0.996251079007013 255 255 255
-0.023660516076067832 0.052309281733237886 -0.9946453772907378 255 255 255
0.0020667293033551533 0.10511459061886999 -0.9940075609640949 255 255 255
-0.010251687385701496 0.0643850256949417 -0.9978458721312596 255 255 255
0.07186126898564771 0.025047349738944017 -0.9970794264376136 255 255 255
-0.03693600813103874 0.04067788843158629 -0.996568647723165 255 255 255
-0.03492308369055324 0.045413008730192043 -0.9962265142110309 255 255 255
0.07103407167544899 0.03907811363412128 -0.9966220318554528 255 255 255
0.01722696658501824 0.1114109574951492 -0.9923215843226745 255 255 255
0.0627328195220461 0.07118786846292328 -0.9951029191687382 255 255 255
0.08756843696222319 0.07886756794977665 -0.9898968154390007 255 255 255
0.056880624347165426 0.11367308006251302 -0.9917948811840912 255 255 255
0.07281776761774325 0.08011235086532494 -0.9926739359483095 255 255 255
0.05267050956272868 0.026573215477924128 -0.9980645299084793 255 255 255
0.05143201791694235 0.08755603749288186 -0.8853830130869713 255 255 255
0.0034366759572239504 0.11756271821912422 -0.9923563702366125 255 255 255
0.012485668490133347 0.07616940637106659 -0.9966424233785459 255 255 255
0.06862331985741833 0.07995456797309262 -0.9921222873648136 255 255 255
0.05811076309187232 0.10515013968821856 -0.9850888872763455 255 255 255
-0.0003152690871796382 0.09434618523111322 -0.9953179802713579 255 255 255
0.07508484341736471 0.06521566273836919 -0.9933396982762239 255 255 255
0.041230733183932014 0.10435018373511866 -0.9837418653650708 255 255 255
0.054780810013407004 0.08424234794315995 -0.9947441688247801 255 255 255
-0.00040961437253392833 0.06263977142821947 -0.9942038602886943 255 255 255
-0.04742289951954927 -0.0021832776151796914 -0.9988703030271118 255 255 255
0.041736708669006334 0.1041853113590683 -0.9809512672840237 255 255 255
0.05717485492812904 0.08395900932976233 -0.9948234352742008 255 255 255
-0.1956511154261128 0.1721048231185897 -0.9394819538229725 255 255 255
0.021176952826810782 0.07341840185366802 -0.7413226581202168 255 255 255
-0.2001986234684838 0.178729415890475 -0.9528293030044584 255 255 255
-0.04078344367532318 0.020426455163418823 -0.9575941557869966 255 255 255
-0.040207787298602825 0.020951813817108055 -0.957594225049929 255 255 255
-0.009740092720453947 0.0989810414777858 -0.8216066093112254 255 255 255
-0.011583539739853882 0.09149797084306191 -0.8173373007343382 255 255 255
0.0023942274710028106 0.10853413671634689 -0.8284048547171436 255 255 255
0.05419377950440632 0.03606154092274759 -0.8713684141668633 255 255 255
0.03755230473617546 0.01253599578561626 -0.9077653278989445 255 255 255
-0.04683832705180621 0.017692735860219536 -0.9616981492360278 255 255 255
-0.0489747293932507 0.029314624363905098 -0.955608918464934 255 255 255
-0.006820912714436497 0.1054136664979348 -0.8336908240245217 255 255 255
0.03628240261657063 0.014196102158925944 -0.9086270789778026 255 255 255
-0.027227588084744764 0.05476717293673914 -0.8710832219769566 255 255 255
0.05486908139464131 0.03970953213286743 -0.8647321624105527 255 255 255
0.04647141302186702 0.026273455104498546 -0.8715518128108954 255 255 255
-0.008601574406135543 0.050071770264585175 -0.8147260123699945 255 255 255
0.03431274396793513 0.006528438106639738 -0.9113245237022221 255 255 255
0.005370951004263068 0.09059880052875774 -0.7600357471686147 255 255 255
0.05420557555293963 0.02981280357543563 -0.8891845794457287 255 255 255
-0.003373972701477527 0.009495585604118562 -0.925108918093073 255 255 255
-0.03963176464109275 0.04363005891334521 -0.9525403763933891 255 255 255
0.04195520532595526 0.008392306434672954 -0.907660139540899 255 255 255
-0.005137370685121413 0.04685103480606899 -0.8286504581661682 255 255 255
0.046490400847048786 0.02555128927450943 -0.871721614934486 255 255 255
-0.04222358584684043 0.03507968339941947 -0.9517583693822927 255 255 255
-0.12999312904287036 0.16384079268844406 -0.9625118886552833 255 255 255
-0.03889443698907134 0.02180389774874794 -0.9571593618414883 255 255 255
-0.04912049616853519 0.01821468177277014 -0.9617007741021087 255 255 255
0.029337371272933455 0.01054520645523282 -0.9085658351319166 255 255 255
0.036611719833470474 0.013700701423864347 -0.9080333722409966 255 255 255
0.04580386253305398 0.021290910651712725 -0.8882684026162864 255 255 255
0.03919082656238631 0.019862104405419134 -0.8922240592856032 255 255 255
-0.009846003365234621 -0.04832741018842905 0.5950361400101774 255 255 255
-0.015616111959458955 0.08021499537720402 -0.8069292798088641 255 255 255
0.04587187121642594 0.02860980226793996 -0.8687127737635637 255 255 255
-0.02080299310624143 0.07244926959736542 -0.8254234363245347 255 255 255
-0.05097601865388075 0.01853741594103448 -0.9612680637407687 255 255 255
-0.003097007165350206 0.08723211263903313 -0.7788232317493317 255 255 255
0.0012824594880954346 -0.0054448867709132424 0.022666044802889158 255 255 255
0.004760847623117515 0.095632426389086 -0.768016835335793 255 255 255
-0.011971661373419668 0.06839765166677135 -0.7913646206520094 255 255 255
-0.047439226675924206 0.03553987193740746 -0.9530250731414092 255 255 255
0.00041643473294256957 0.010402698049632009 -0.9321790662809751 255 255 255
-0.003294476046313453 0.08290426342267575 -0.7672989105153623 255 255 255
0.009099234498513662 0.01701071142353328 -0.20065070262968165 255 255 255
-0.03137104015354454 0.047018315685461 -0.8932526783172605 255 255 255
-0.0005995889192609989 0.11291267241477076 -0.8480967340301644 255 255 255
-0.004269636088483206 0.10977520560303645 -0.8426804939633895 255 255 255
-0.00363858057137859 0.009644899828559756 -0.925984311312381 255 255 255
0.04002218411510111 0.035400841551231306 -0.7479726631041395 255 255 255
0.009269298018349538 0.09283835127268773 -0.7543978329777685 255 255 255
0.030858245712990034 0.07252868025513477 -0.8117409648578767 255 255 255
0.02665779988500296 0.011064033919225702 -0.9101039786050095 255 255 255
-0.014399073006821129 0.07040504560658217 -0.8080315890804981 255 255 255
-0.04676148775878153 0.04632454883286395 -0.9571167730215898 255 255 255
0.03928227074460896 0.03484564633332876 -0.7452817262378082 255 255 255
-0.015469229599100775 0.07166661172582652 -0.809801043372514 255 255 255
-0.020329240987174063 0.07504403063158664 -0.8246504116294482 255 255 255
-0.03760076226851714 -0.028219158132396095 0.4877759268131562 255 255 255
0.024635545179756833 0.010812470020125387 -0.9131657455645316 255 255 255
-0.012603515319325586 0.008573625823728798 -0.9391155720955847 255 255 255
-0.05469796244732832 0.032801281235613954 -0.9552223734227216 255 255 255
0.007978963188106642 0.011651021903992635 -0.16403296557258337 255 255 255
-0.05146393876645234 0.03604690953506321 -0.9479494375629957 255 255 255
0.031743894108333934 0.07226831877660375 -0.7694551607122099 255 255 255
-0.1114855794418417 0.15424494126267815 -0.7925485443811314 255 255 255
-0.152628998892644 0.16863469518359148 -0.9694193260514561 255 255 255
0.020844684464523918 0.01312815434403885 -0.9120659929052836 255 255 255
-0.01995339343575382 0.05002570276977225 -0.8681347373736618 255 255 255
-0.01039084335793695 0.051254564017628026 -0.8219722845747445 255 255 255
0.010673932185874313 0.019958407651520394 -0.23407197556908377 255 255 255
-0.01754777626591832 0.08133935958760806 -0.8107800725171127 255 255 255
-0.032588342363372866 0.04685786941481463 -0.8973537855687386 255 255 255
-0.0396141307334845 0.045554096759023756 -0.9546935454367856 255 255 255
-0.013535288273058133 -0.019566907567089852 0.27858844461718385 255 255 255
-0.023420809180397423 0.05246198399558697 -0.8670764446491637 255 255 255
-0.005156567106615944 0.05747031932877362 -0.7525473670423155 255 255 255
-0.013987299905521246 0.0952896793132669 -0.8251600499679904 255 255 255
-0.044270883585783107 -0.025134830717443376 0.6393493902543806 255 255 255
-0.02102926141070451 0.04757731256106891 -0.9054403648285091 255 255 255
0.046382226984482675 0.04912430459836207 -0.9392523895388776 255 255 255
-0.02700596310705432 -0.030144951872867642 0.5150941058082507 255 255 255
0.03830435034224722 0.017980607092263692 -0.8844945938835725 255 255 255
-0.033607010331147574 -0.022440898192621135 0.5255651755557824 255 255 255
0.06726158337810237 0.06269216425126445 -0.9516524222215881 255 255 255
-0.018904581573614732 -0.03619607843944439 0.5436704114613773 255 255 255
0.015543270872290457 0.01866040652432637 -0.8962592307426767 255 255 255
-0.04096724056149445 0.0785966850611303 -0.9305728447251439 255 255 255
0.024507371317098885 0.022377521032863043 -0.903454875994209 255 255 255
0.025935125852470327 0.02056602842726884 -0.9041445083494639 255 255 255
-0.015790206797526737 0.13521570658962623 -0.9569992797201832 255 255 255
0.02485923990099193 0.021876435080832778 -0.9033849357693198 255 255 255
0.022409031475118746 0.014194289540160002 -0.9080854953814813 255 255 255
-0.09289800378488841 0.17179401639285133 -0.9528634045867137 255 255 255
-0.05354135133965776 0.03916749258207702 -0.969297033776627 255 255 255
-0.02078055415056716 0.12254654426060581 -0.9502770106385536 255 255 255
-0.06238350757287787 0.037192735994277595 -0.970272078558276 255 255 255
-0.0014181988833379554 0.1314113031734165 -0.9553070076965441 255 255 255
0.02285866520211412 0.09018542326370817 -0.7688660848068597 255 255 255
-0.01136274069489507 0.12075448033109469 -0.9442093477428982 255 255 255
0.016395922424289784 0.01854043328088163 -0.8979555433621159 255 255 255
-0.01381056851279718 0.022373147066930863 -0.9304889821457648 255 255 255
-0.021670914582268982 0.07308126252964013 -0.8926460637311046 255 255 255
0.013534848508985935 0.019378116819439097 -0.8992623967568779 255 255 255
0.03289695684549035 0.03046283538652033 -0.8212437905294264 255 255 255
0.026274427131428597 0.02654991561402787 -0.8688040434686035 255 255 255
-0.05173891866497125 0.04029538965635224 -0.9686913556682235 255 255 255
-0.002684524406117697 0.01664759771468493 -0.8897841013968761 255 255 255
-0.003992609120348213 -0.053677603555640684 0.5666762134023059 255 255 255
-0.0616199189272394 0.04946294704352834 -0.9696033387248704 255 255 255
0.03304821173776088 0.030056256550183486 -0.8249486156935969 255 255 255
-0.048868595508850456 0.06511016246098388 -0.9781814380846371 255 255 255
-0.0674005475222751 0.05383694928792176 -0.9695437750999035 255 255 255
-0.00944010491310385 0.14133194145066322 -0.9603094460428083 255 255 255
-0.06427916454384479 0.03755426905621325 -0.9698832826432159 255 255 255
0.00030027667655611553 0.12635672936063794 -0.958572280135549 255 255 255
-0.01896920396969253 0.02197709808186923 -0.9201461168324769 255 255 255
-0.019277680196849386 0.021973839136064276 -0.9202364220366042 255 255 255
-0.018758858892165595 -0.020181216686456095 0.37609468299755405 255 255 255
-0.029277118136777563 0.02225942000706574 -0.9349918474650397 255 255 255
-0.02372292582895068 0.09800113483620716 -0.9148957273724401 255 255 255
0.031232953181005493 0.030194216784771813 -0.7913276727358456 255 255 255
0.03353337411072028 0.02737742857935701 -0.8656191185393781 255 255 255
-0.03433766706075534 0.06710869390831237 -0.9354313094420867 255 255 255
0.03140580083292158 0.016351515562402368 -0.9129841771012195 255 255 255
-0.04351609391826707 0.06923762081584642 -0.9430964791790721 255 255 255
-0.06480110507748978 0.05842255424238065 -0.9694543714110258 255 255 255
-0.005443873998453992 0.13881504160814048 -0.960764214036269 255 255 255
-0.05984060314874021 0.05632659428792992 -0.9697857019543943 255 255 255
-0.019098350807002288 0.13031824652403703 -0.9500591912054982 255 255 255
0.036402737796556194 0.11016874581997424 -0.961817872556903 255 255 255
-0.03338425532405262 0.10145883067719576 -0.9269208672090481 255 255 255
-0.03721945307356328 0.07576834612667331 -0.925931711723384 255 255 255
-0.02363323733357163 -0.08040702875061395 0.6764434562590707 255 255 255
-0.0332555654760482 -0.029301603265767886 0.6375524509633848 255 255 255
-0.033938975699903444 0.07230794832235425 -0.9213915337653512 255 255 255
0.004756350303213457 0.12923627257950707 -0.9610743618455612 255 255 255
-0.03254782766376535 0.1042201870284714 -0.9304637398865713 255 255 255
-0.010944528670531098 0.11776804980473171 -0.9411396082831752 255 255 255
0.03162904893962413 0.11733248967351462 -0.9756141393190613 255 255 255
-0.02651200471205996 0.09951425955226255 -0.9201223288783428 255 255 255
-0.03399494268527013 -0.030892070766981156 0.5726808827253168 255 255 255
-0.027050173442747308 0.11101696968507067 -0.9310990435388763 255 255 255
-0.02381203813839157 0.12591154730952542 -0.9498990933361107 255 255 255
-0.013311304186053573 0.13885184707721074 -0.9581388807094338 255 255 255
-0.00763309725196669 0.07666774664316801 -0.9646731957762632 255 255 255
-0.023289455018661972 0.0752752962681476 -0.903733775138979 255 255 255
0.04987343300787617 0.05296800105638341 -0.9352564041295166 255 255 255
-0.027330745153416047 0.10101222285519568 -0.9232624719127279 255 255 255
-0.04947733898487671 0.06679439863232925 -0.9776092303349974 255 255 255
-0.005968324669381164 -0.020355006503109386 0.21921147234079952 255 255 255
0.0011271031164450456 0.0947668130132883 -0.7883789769201257 255 255 255
-0.05634531143304656 0.06783201705890347 -0.9789776333355585 255 255 255
-0.016485891217850712 0.08607247835064062 -0.8887838353499463 255 255 255
-0.01611212165087051 -0.03433958137408803 0.45284886596700424 255 255 255
-0.015869451027945927 -0.0220882331041029 0.46039895235793177 255 255 255
0.026042812040943643 0.10575611303906489 -0.8987391785001195 255 255 255
0.0032863112029138226 -0.012838400258854962 0.18221934685076735 255 255 255
-0.010198386969546398 -0.05650014681704945 0.6052792810961837 255 255 255
-0.0010361938198329584 0.10179050354986478 -0.8913634374855967 255 255 255
0.007205228932710681 0.0015598545366631172 -0.8309116778881951 255 255 255
0.008277445843733367 0.09418323090649539 -0.9436430930854987 255 255 255
-0.004555434375987863 0.002289722804356359 -0.8350598091652753 255 255 255
0.002257030237372771 0.10134118528036594 -0.9085032313705504 255 255 255
-0.012456317002992618 0.06761456451608652 -0.8677244898527217 255 255 255
-0.03178676138831542 0.03773947957490328 -0.8083042814428499 255 255 255
-0.0038395896071274907 0.09934203332723406 -0.885966360943346 255 255 255
-0.012547377109388493 0.04819860286104084 -0.854277123730056 255 255 255
0.014508024314743712 0.00437467393694089 -0.8443089544872784 255 255 255
0.015116673491047436 0.0030949138075005715 -0.8420899104045225 255 255 255
0.02008129404011453 0.014622489066049633 -0.819378373892824 255 255 255
-0.010173619248721741 0.08570658908396737 -0.8749781120084767 255 255 255
0.031719195859683885 0.08184143324658441 -0.9768242314925232 255 255 255
-0.009024586097250226 0.09141450482665747 -0.8689349135570023 255 255 255
0.015120208369415706 0.05246642008656549 -0.8073949227169797 255 255 255
-0.019813232730807623 0.06963007387711348 -0.8414849771021196 255 255 255
-0.027443718062323846 0.04699008902092302 -0.8214188030044298 255 255 255
-0.01535234328988972 0.07576700074619405 -0.851676071623581 255 255 255
-0.01495882449730323 0.004896493718291391 -0.8399428774491976 255 255 255
-0.0024582178842732696 0.08686174861055393 -0.9003806674821984 255 255 255
-0.009112888983369424 0.045552510742038727 -0.8702181701076216 255 255 255
0.03578184976286954 0.035219613142493174 -0.9245809023569127 255 255 255
-0.02221931209422457 0.045105207307302185 -0.8416005435789029 255 255 255
-0.03642508349810397 0.03246248910998661 -0.8297590559049506 255 255 255
0.012080248037954017 0.09718496935958762 -0.9537865678809876 255 255 255
-0.008687119964374832 0.0043850265508067815 -0.8578845984004504 255 255 255
-0.02042230243066446 0.06777356559455774 -0.8424265826948604 255 255 255
-0.0020708753714324285 0.08499138159516192 -0.9041350511943093 255 255 255
-0.03510222549907781 0.017193241242927995 -0.8658009940518023 255 255 255
-0.030744165450055174 0.010557177175738118 -0.8845565101903461 255 255 255
0.024636537686235967 0.02351137618215962 -0.8766032195153438 255 255 255
0.0071576885319900516 0.09818749780919868 -0.9403756489569637 255 255 255
-0.013484330734565368 0.04927376345752319 -0.8567201394561069 255 255 255
-0.03267597597822539 0.039330776361037455 -0.9047002740126854 255 255 255
0.025181701342600362 0.0340495120242083 -0.8132379419640083 255 255 255
-0.015613875413116186 0.0686915592727586 -0.8555138681479129 255 255 255
0.036641562053069066 0.0852042640757607 -0.9956805377937888 255 255 255
0.019213085364472422 0.005424033967331059 -0.8808789995728838 255 255 255
-0.009261172789941065 0.058043603639523766 -0.8526795838847595 255 255 255
0.03432985504279625 0.034926584293330724 -0.865970384120578 255 255 255
0.029925182614539646 -0.005057440459314241 0.12122059069374813 255 255 255
0.03656275723816293 0.083259546115791 -0.9949795705352465 255 255 255
0.02010872824418692 0.014607012432027115 -0.8682375344074725 255 255 255
0.03266257138528008 0.0903320472665199 -0.9953355392394555 255 255 255
-0.012787783894256317 0.087182878052923 -0.8598688884782812 255 255 255
-0.0039226482696007306 0.1349472290851595 -0.9483345463979858 255 255 255
0.0059832245690362214 0.07339191142332015 -0.8614980328538571 255 255 255
0.027564197951282097 0.05393467977935439 -0.9121313250687023 255 255 255
0.016725974178388253 0.02994680871367288 -0.801396683665432 255 255 255
0.010837489823314549 0.05027218612252594 -0.5405719577652586 255 255 255
0.0280309656300428 0.04506336796278976 -0.6741932174416937 255 255 255
0.010826158455635853 0.0401266362150402 -0.33165056179066166 255 255 255
-0.0031150507503240146 0.0011850939655218468 0.15902999195151238 255 255 255
-0.005545869603723694 0.005233416684803718 0.3315853313324874 255 255 255
-0.016725121898475918 0.027397891805244143 0.03377768602155634 255 255 255
0.022389912011388017 0.052207074171823596 -0.48861718512916535 255 255 255
-0.003365305696431676 0.03919920647657291 -0.33152904701646185 255 255 255
0.0322577228314513 0.05825807071296667 -0.381147447046493 255 255 255
0.03921367586611839 0.015230844911891995 -0.782838813113959 255 255 255
-0.0020886430568522367 0.03825275944047451 -0.32465248503656935 255 255 255
-0.035996814563595526 0.01563319525349345 0.3784790889301279 255 255 255
0.023574051145733466 0.06318021604011731 -0.5663095759005979 255 255 255
-0.0022642417908399636 0.013579523782904761 0.15482557558118043 255 255 255
-0.05888054971866884 0.013570613363450477 0.5853665881638307 255 255 255
-0.017250837099830694 0.015977968646413654 0.4347597079798271 255 255 255
0.0595339769138273 0.0315468646027716 -0.9906237841038539 255 255 255
0.014596123372660051 0.05293174602275169 -0.44330388950401767 255 255 255
0.010432863831831028 0.042360501354500216 -0.35926399295514794 255 255 255
0.010607050608861546 0.037971889825981424 -0.30568305160690723 255 255 255
-0.03223367317052188 -0.0009505839693377624 0.6703349407494708 255 255 255
0.03824225000617371 -0.0027254805505213856 -0.7235248298502377 255 255 255
-0.006644228771533251 0.00411617448438287 0.24530029203281714 255 255 255
-0.00014512351583683246 0.011763663296396658 0.014385699034402297 255 255 255
-0.06512938994192614 0.02711440579507213 0.39239395704072827 255 255 255
-0.06412115444965825 0.026160679543799543 0.40599279292129337 255 255 255
0.028371730928577057 0.04421370443749999 -0.33129448502558273 255 255 255
0.1186471384993067 0.05989088768340455 -0.7873916944448833 255 255 255
0.05260288199607324 0.06151679244921511 -0.9004990245071846 255 255 255
-0.02424778716160029 -0.026375260788743936 0.5631318027120873 255 255 255
0.04097143219709851 0.03556687996876667 -0.8680368952464304 255 255 255
0.014405654071269576 0.05853977963426728 -0.5347385362678725 255 255 255
0.021487695488488806 0.04385316468067533 -0.5280157547347255 255 255 255
0.011739922432749015 0.025525022953410713 -0.10300070444062709 255 255 255
0.005345890911491871 0.033857607446174345 -0.26291148586859203 255 255 255
-0.008305856496072121 0.004361353005913697 0.15876143924847638 255 255 255
0.05136498873139701 0.0769027507680082 -0.9488590414492911 255 255 255
0.01190209797621782 0.02359649301637751 -0.0990971607754317 255 255 255
0.05563394490623247 0.05658237926911572 -0.9789609834750015 255 255 255
0.07395014758522923 0.09126038718734798 -0.8752843574866247 255 255 255
0.11542156297898792 0.11763477496046126 -0.9344349151046332 255 255 255
-0.008396838367424237 0.11401596269985667 -0.9532575230983741 255 255 255
-0.010506721239016819 0.1038478194948514 -0.9077569100538676 255 255 255
-0.007161303511825776 0.11710497880221124 -0.9655237628670391 255 255 255
-0.00229530465798824 -0.07855543672288122 0.6565863524542832 255 255 255
0.009068372728978927 -0.011126687000580459 0.31125327826890004 255 255 255
-0.012726084305908176 0.07891364216382044 -0.7848385586189117 255 255 255
-0.01200648635561078 0.07867728566722024 -0.7898288007702559 255 255 255
0.009931183147421216 -0.013039548510003331 0.6020732679098443 255 255 255
0.006036529519489597 -0.004716109244741454 0.007588557298650732 255 255 255
-0.003905020854530166 -0.013755426374928824 0.532826943440103 255 255 255
-0.015062874871545007 0.08697560980088397 -0.8157995750356025 255 255 255
0.008309286443195195 -0.04969650176613383 0.6255344650915223 255 255 255
0.0027415144997126376 0.11824720173498181 -0.9929125984096864 255 255 255
0.03133859096091118 0.07391824739609508 -0.9638269599499858 255 255 255
-0.0017152735229092428 -0.06774258614827354 0.5279141447978528 255 255 255
0.006027104622684936 0.09325499654104626 -0.8239369037469412 255 255 255
0.03099041379596353 0.06609455937201182 -0.9180889841288903 255 255 255
0.03024537817838324 0.0623372788183799 -0.9691694253016572 255 255 255
-0.01647563535970733 0.07511109289137467 -0.7224607646980389 255 255 255
0.010316851722180973 0.002101879239140896 -0.09375823083759129 255 255 255
-0.0005564906707372154 0.10745766311139648 -0.9792971425334156 255 255 255
0.027207314226866286 -0.00854713266814739 0.1465639270850572 255 255 255
0.016480670494506296 -0.07110226972517819 0.690410849015764 255 255 255
0.031901794853089686 0.06665991545744794 -0.990160432508692 255 255 255
0.0008794913908494565 -0.0632533276607283 0.577774145442038 255 255 255
-0.008711130532207229 -0.07417346256872481 0.5856312657705649 255 255 255
0.006299173254108526 -0.0033583255659076364 0.018810635936879944 255 255 255
-0.016587868028056715 0.06395272087648503 -0.8453303370130815 255 255 255
-0.01372338112571008 0.06665087893198494 -0.9180530041730465 255 255 255
0.013348647520840012 -0.03925862323022031 0.43561478977885687 255 255 255
0.009191940458410017 -0.017119442483964385 0.5910219801945866 255 255 255
-0.006815876773552941 0.08233879819445765 -0.9040124594731945 255 255 255
0.0024970762106406546 -0.0644943063650495 0.5334285685841295 255 255 255
0.0017830412604956955 -0.07334922452912455 0.6262072900620105 255 255 255
0.01929950511114008 0.008253063917130586 -0.14203384628160712 255 255 255
0.02281436672575706 0.015001033016233262 -0.2318334905947144 255 255 255
0.002504058843188588 -0.06883534655907615 0.5769573477774306 255 255 255
-0.000568960992578202 -0.07153058939276963 0.5999886909822804 255 255 255
0.014101919859135737 -0.010725993591463317 0.14636453179392592 255 255 255
0.0012086015148132588 -0.07800898238289468 0.6955163810067689 255 255 255
0.015285612047455535 -0.0011863382018518379 -0.006183298329828883 255 255 255
0.013066201473331806 0.09944391894667434 -0.8730667536508517 255 255 255
0.0066960920848835054 -0.06262632331190855 0.632975822248334 255 255 255
0.010167415984261598 -0.05688145957337056 0.5654333738263524 255 255 255
0.005221329178364366 0.08353132638508072 -0.7140995224354904 255 255 255
0.00800243698041205 -0.06399832785294048 0.6125196454486925 255 255 255
0.006890287216200241 -0.04409011798668024 0.5038326907438548 255 255 255
0.013007775532992764 -0.04076126035182963 0.44648287181419677 255 255 255
0.004083141295743053 -0.07210118227388909 0.6311945417322127 255 255 255
0.019228898760256397 0.10605657137988475 -0.9599070969922175 255 255 255
0.016843204903364484 0.0023111003093760963 -0.06307996322365966 255 255 255
0.006946510082945663 -0.06612950170784535 0.6340540446269546 255 255 255
0.01233476262399702 -0.03741275601567941 0.42417380161683893 255 255 255
0.007014445087767685 -0.049163018206138845 0.5475092747594431 255 255 255
0.0013867714631808448 -0.07660133535614781 0.6693153831735641 255 255 255
0.024625135678553352 0.10363490972967264 -0.9930973476898346 255 255 255
0.014313742495501203 -0.00450840517493947 0.050863885896769975 255 255 255
0.00863177928576809 0.0814395736306053 -0.867029029386862 255 255 255
0.013850177010147121 -0.007025194079461192 0.08695479094544141 255 255 255
0.012138101694861403 -0.035973771286078676 0.41275503256040946 255 255 255
0.02862724564612622 0.09282977527233859 -0.9862482280811001 255 255 255
0.02162878635662909 0.09626305323275348 -0.987528363931663 255 255 255
0.004537580043007704 -0.06131761958903781 0.6502605905385924 255 255 255
