ply
format ascii 1.0
element vertex 103
property float x
property float y
property float z
property uchar red
property uchar green
property uchar blue
end_header
-0.19827984470755733 0.18463313388034203 -0.9532000422891338 255 255 255
-0.19632218317242664 0.17857860481279692 -0.9472486544432573 255 255 255
0.015418746372356587 0.13594861736785865 -0.9842507280304286 255 255 255
0.010113440848029873 0.1296758961774049 -0.9852853283250661 255 255 255
0.058170122234481154 0.10820250945334052 -0.9837437247968274 255 255 255
-0.037260218348623884 0.04262462891826087 -0.9928191645779619 255 255 255
0.07067857947721877 0.037306133543183476 -0.9893381255173491 255 255 255
-0.04526927398172635 -0.002373484552973548 -0.9969899133771569 255 255 255
0.04277737673480994 0.10791835470355084 -0.9880099694642533 255 255 255
0.0576929598874581 0.1000657782778865 -0.9844631585049726 255 255 255
0.005931012866311874 0.09751846728664074 -0.989355731149751 255 255 255
0.03163258649693803 0.10723554134103028 -0.9177171652381754 255 255 255
0.05543275854301914 0.08441407405927057 -0.985462574902628 255 255 255
0.07583841267594232 0.06540870395910128 -0.9883144246208413 255 255 255
0.07666846729193683 0.04437912036521047 -0.9885569108385964 255 255 255
-0.03134279949716171 0.03925790191749432 -0.9930229080644564 255 255 255
0.067010322128266 0.035723670044612334 -0.9884825542580599 255 255 255
-0.029427410341567973 0.03156793233739385 -0.9932402038511139 255 255 255
0.06379338540711513 0.028610682433750638 -0.9899071325473014 255 255 255
-0.02261346313777097 0.029944440635313218 -0.9932617177018622 255 255 255
0.057324069335760744 0.02506505213221339 -0.9910489351859058 255 255 255
0.04030331315002052 0.021902546297766036 -0.9906195634574488 255 255 255
0.022676952273279673 0.022601860756810113 -0.994151590361586 255 255 255
0.02440452182865625 0.12691207437350122 -0.98497862806506 255 255 255
0.09212699368100744 0.07481019629322266 -0.984352486794562 255 255 255
0.01936926993509561 0.13364424095202332 -0.9844777918242761 255 255 255
0.012044061915137358 0.13318028142190252 -0.9847389269775639 255 255 255
0.008065575792178422 0.12410384689201834 -0.9861335223709166 255 255 255
0.025982579365535642 0.12263003748074074 -0.9850766587032913 255 255 255
0.007036636069984998 0.11722487178292179 -0.986915277300013 255 255 255
0.01693258024141528 0.11677036361873697 -0.9864611591000232 255 255 255
0.06238036972771498 0.11013949468646878 -0.9827490067823261 255 255 255
0.042090932366163986 0.10769314880325624 -0.9879144701299671 255 255 255
0.002591766462879249 0.10731409287320497 -0.9885932621563903 255 255 255
0.0001688533590783974 0.09945333784516502 -0.9895174444220071 255 255 255
0.007125780351251709 0.09634695066049977 -0.9894793274248627 255 255 255
0.054406334556871036 0.08484686706195309 -0.9872317612781502 255 255 255
0.08749483937331723 0.07943964145009103 -0.9849590482152295 255 255 255
0.06809134442873659 0.07943193630930578 -0.9851496516556537 255 255 255
0.0017116075393793489 0.07090255078723544 -0.9917619157864436 255 255 255
0.08760116616273197 0.06548697653380044 -0.9857531079279859 255 255 255
0.07553066978753432 0.06504343189771748 -0.9885978032787182 255 255 255
-0.01067948352157589 0.06486664967423421 -0.9907071435168867 255 255 255
-0.0008143441271475537 0.06473787398685521 -0.9908897353890275 255 255 255
0.08394260764154486 0.05534373759393602 -0.9868733782939982 255 255 255
-0.02494851010649032 0.05635841367339384 -0.9910680154472853 255 255 255
-0.03225927767372715 0.056483737877811385 -0.9912831615780985 255 255 255
0.08344169911153639 0.04696453122296631 -0.987200220737705 255 255 255
0.0762876326954305 0.04518588501256776 -0.988385465055935 255 255 255
-0.03525871613680216 0.04746398111292665 -0.9924786044619401 255 255 255
0.0752234282760483 0.03817814841226588 -0.9887150463394381 255 255 255
0.06775831543417807 0.03638007577339339 -0.9895002197045282 255 255 255
-0.030191055894324328 0.03156558539313534 -0.9932664678134255 255 255 255
-0.022073770892663616 0.030450801677625945 -0.9932321363903237 255 255 255
0.06429725362090873 0.028160274113895913 -0.9898889194959668 255 255 255
0.05638480189905692 0.02538313415073933 -0.9910623905910517 255 255 255
-0.02810202553603863 0.025859078648681002 -0.993696988882189 255 255 255
0.0408633164134636 0.02240759986447408 -0.9911090743426341 255 255 255
0.022732513692851352 0.022607254122040742 -0.9940451451414866 255 255 255
0.06332854335350019 0.02030741249683473 -0.9908264235315801 255 255 255
0.06300440834187578 0.10791225262937924 -0.9828002209566993 255 255 255
0.004686393852411217 0.10663285544592141 -0.9884751696156258 255 255 255
0.01033571688284648 0.09594336106081645 -0.9895495078374325 255 255 255
0.0529389937243682 0.08981910679702142 -0.9854035847515525 255 255 255
0.019130656690986615 0.08908538478561824 -0.9901511782073251 255 255 255
0.02209435074797694 0.07888952012650138 -0.9892048045148302 255 255 255
0.01160100584726792 0.0772388924333481 -0.990390935801013 255 255 255
2.6470844533914007e-06 0.07226747226240218 -0.9917560073077544 255 255 255
-0.02433209146681096 0.054697392491100054 -0.9913477893058886 255 255 255
0.07565203012667154 0.04789494449474657 -0.9885253989733666 255 255 255
-0.03288942527981997 0.04660746721063074 -0.9924665660471039 255 255 255
-0.020871651651659034 0.03145718508107522 -0.9931274960065208 255 255 255
0.06550050547059476 0.026879011271312297 -0.9897888091055413 255 255 255
0.054263928586916324 0.025491412295085634 -0.9913130096693283 255 255 255
-0.03084722242648592 0.026624783434692767 -0.9935339082996238 255 255 255
0.056439942511648473 0.11556629533780541 -0.983187721769568 255 255 255
0.07220553879816338 0.07960264598333616 -0.9844859823023655 255 255 255
-0.010599311574968545 0.064944608776832 -0.9933585623694066 255 255 255
0.015665291939623564 0.13097691382109 -0.9848469761619487 255 255 255
0.030050315182676944 0.12566343817681033 -0.9844474775419889 255 255 255
0.004059934863103071 0.1200923094942461 -0.986815371906868 255 255 255
0.017671337449902548 0.11357069621427454 -0.9868196464247375 255 255 255
0.04031994980289222 0.10908017819793875 -0.9871552561288418 255 255 255
0.000352961504779738 0.0962528135545646 -0.9902347873070352 255 255 255
0.06684313882252493 0.08942824827361295 -0.9836142808327231 255 255 255
0.05124739626122373 0.08838638723699138 -0.9897164410385086 255 255 255
0.014818539576754433 0.07610886048278222 -0.9909526540384211 255 255 255
-0.0021643613822059406 0.0734993195346461 -0.9916822648231532 255 255 255
0.06478520210937357 0.07044422358748001 -0.9901041293119074 255 255 255
0.08460671485737824 0.05973108850572343 -0.9865886592919437 255 255 255
-0.0010583870281992258 0.055915234859365885 -0.993370656133567 255 255 255
-0.030641106658004708 0.046200129409119 -0.9923898135217427 255 255 255
-0.018975985199669674 0.030725909392350027 -0.9930800779674506 255 255 255
-0.03293123602848528 0.02716525411165929 -0.9934382085091714 255 255 255
0.051877486751755096 0.02492250501550209 -0.991473136652156 255 255 255
0.024234539319895006 0.022743251146719524 -0.9926247435727171 255 255 255
0.011763063426890808 0.02032074323660957 -0.9949881778506835 255 255 255
0.08014472824513103 0.07078602195110215 -0.9857222546912897 255 255 255
-0.025711211988219584 0.04625696809249665 -0.992164318709479 255 255 255
0.04753764213016259 0.027597140768173545 -0.9916829157969376 255 255 255
-0.006185995294763975 0.0752749173265322 -0.9917540365650437 255 255 255
0.019330205819435592 0.07098739556666663 -0.9913062325229361 255 255 255
0.0713218030297968 0.022363281928995574 -0.9897333520207638 255 255 255
