ply
format ascii 1.0
element vertex 325
property float x
property float y
property float z
property uchar red
property uchar green
property uchar blue
end_header
-5.839166227734582 -4.533416410833861 40.31536989659119 255 255 255
-7.472787844359651 0.3601289421275055 39.6190965470669 255 255 255
-13.368149893493008 9.963508017984525 47.76252824311009 255 255 255
-6.741420971601945 -2.693689417174353 36.97650583409466 255 255 255
-25.761109906546107 -0.7641832531229327 60.34575807665892 255 255 255
-9.210083005319857 2.51550840260969 38.1048303467063 255 255 255
-4.683832926127096 4.229120740420686 37.79141357603852 255 255 255
-7.029053848077642 0.15772103263047427 39.11035916072446 255 255 255
-8.209312825824934 -6.240656472744196 40.477814262180715 255 255 255
-11.231900550864067 -0.007819102585331314 41.340401075226815 255 255 255
-5.77398963343181 2.158670023614752 39.275173271255554 255 255 255
-9.785774271032562 -0.29268697839783153 40.316068554427716 255 255 255
3.6614984956213834 -9.326686976417756 44.99320967069597 255 255 255
-7.3825288308380905 -5.49973445179499 40.67662376981157 255 255 255
-7.332251646274708 0.08640957798862166 39.30916491594737 255 255 255
-12.689240500117906 9.864714294176832 48.76776654564427 255 255 255
-2.36885440380626 4.262055016381451 39.21757428964633 255 255 255
-7.6154813048114 -6.035795984099313 41.9619545927444 255 255 255
-14.527049555177824 -1.8542053069449995 43.54564795839506 255 255 255
-6.073836644629885 2.4131772262168294 39.91343245991473 255 255 255
-2.9430204185121873 3.177001793300381 40.83213626681369 255 255 255
2.755042272609385 -4.815509668535842 47.67086612608649 255 255 255
-7.5581791715800515 -6.031659374234481 41.80202043436689 255 255 255
-9.573677870497132 0.8843069747264735 39.9939391532942 255 255 255
-9.765534159909796 -0.1533223754592088 40.1783199549476 255 255 255
-11.464937762139261 9.035695880158178 48.77654891477938 255 255 255
-7.007036666733231 -1.655160396934968 37.4453279390026 255 255 255
-6.598867054796896 -2.7911970656638707 37.28788457512301 255 255 255
-7.720229149876206 -5.24931072472099 40.658900753835184 255 255 255
-11.141964024892674 0.1795373601055733 41.40097549567429 255 255 255
-8.283764728489778 1.1105758625071678 39.06550522690106 255 255 255
-9.208263393797312 -6.618139225908341 40.43691342979767 255 255 255
8.349668913778608 6.734971409983497 35.82552610812491 255 255 255
-3.792334156258167 -11.082349621237672 35.474968697933676 255 255 255
-7.664200403582307 -5.783751259774235 40.632136758023286 255 255 255
-6.891228391638819 -4.5572334190420545 39.930703540016864 255 255 255
-6.953481142536126 3.90585830407326 36.929980737209014 255 255 255
-10.05273557502626 -1.9725091395191265 39.31421411888705 255 255 255
-7.544411951600385 -2.6745544238433276 36.46094897625229 255 255 255
-6.991544011507815 -5.2039817159411355 40.63525049550843 255 255 255
-8.765738404927664 -2.6990209548282706 37.61549933284604 255 255 255
-7.824585412313688 -2.229453316217639 37.3987611554931 255 255 255
-3.099575177395315 3.3061898303991213 40.39621688607826 255 255 255
-3.6554118047616573 3.3942616638763363 39.946064589094306 255 255 255
1.5573753400782586 -10.95208236908885 44.14038081023382 255 255 255
3.6555807165962424 -8.547687611075766 44.964792973649736 255 255 255
-4.758837220409371 -3.3955993604982924 38.484783745353035 255 255 255
-9.836848322862078 -0.4191271963666729 40.00692975097825 255 255 255
-8.412433983130407 -2.901423692193238 37.190669568763354 255 255 255
-7.496335800112898 -2.7629024856505877 36.98836888920031 255 255 255
-6.747231038679498 -2.6910008776989236 36.88776004524762 255 255 255
-6.1190354827904105 -4.4045151989807065 40.15639791865698 255 255 255
6.519308987871947 -4.1481134174107925 42.188332565076884 255 255 255
-9.043343530690832 -5.580827760975994 40.30315820989681 255 255 255
-11.886518025448217 -4.935779551895359 38.010835494277536 255 255 255
-11.2830208928823 10.480380914879486 50.002414729552676 255 255 255
-2.130170699570755 3.9286294129699386 40.38077532841815 255 255 255
-7.246866556865379 -3.1678187028866254 37.333055744698115 255 255 255
-7.50318344737128 -6.011248766467138 41.606048907152896 255 255 255
-9.557975098211681 0.2382534053219259 40.24536367781923 255 255 255
-6.294280763634096 2.822599320042754 39.99576778343982 255 255 255
-7.756621593094473 3.120938927069643 37.97479466392831 255 255 255
-6.481464204412421 -4.9236100573469015 41.35031040219238 255 255 255
-5.455783547773645 -10.308032919479238 33.66088116060353 255 255 255
-13.981281274480066 0.3965360176624445 38.874419667445416 255 255 255
-13.88913235290312 9.661974269525171 48.69849059964045 255 255 255
-10.157609153695729 -1.9751841680003228 39.57275012863247 255 255 255
-6.768971518903915 -5.738173557306631 41.458543102555375 255 255 255
2.5778759958343707 -5.033400630753109 47.49501185194598 255 255 255
-7.4341327303125295 1.0722654879497275 39.312467371468564 255 255 255
3.9206962432114794 -10.46561015660412 43.659597790488895 255 255 255
-5.264496386524449 -10.44066649345577 33.86052114420976 255 255 255
-12.288999781929418 -10.251564291581852 47.65378532735522 255 255 255
-8.41823166746594 -2.9058137307346423 37.221788535052085 255 255 255
-13.347804074753428 -1.5211163723658228 43.818240942718106 255 255 255
-7.452703378973537 2.0912869438101067 39.5164660474163 255 255 255
-13.045368369253948 -9.664018733394368 47.027681827096224 255 255 255
-12.236959221863676 -4.6820951536811695 37.62605031557505 255 255 255
-2.901674715369014 3.139788518223955 40.76169489865235 255 255 255
-8.074150751648967 -5.7612779576472395 40.44310985683459 255 255 255
-10.651592542438523 -5.358531052900677 39.82063266864536 255 255 255
6.867808060911279 -2.152813017291226 42.509716833623166 255 255 255
-9.254299236530393 0.2518025333370858 40.371524601442175 255 255 255
-10.633835248168882 -5.027602394079004 39.74154921584626 255 255 255
-6.580058081506761 -10.895482649356131 48.85001917915659 255 255 255
3.6447165496221907 -8.540235481637115 44.850492733317346 255 255 255
-10.210066056378016 -5.405347598370951 40.289163198452556 255 255 255
-6.235414875640173 -3.745458324166614 38.7530811196135 255 255 255
-6.352669330220277 3.2124480127583275 38.87907539667848 255 255 255
-14.50479509882967 -8.781648329927744 43.32535846276394 255 255 255
-12.823733408796697 -5.211478197791243 37.12052647307937 255 255 255
-7.737757772942327 -5.27437887489015 40.69295921015332 255 255 255
-6.036145262620506 2.6731649052190707 39.81608103494904 255 255 255
-2.989121286874145 3.2024616820954335 41.22222668496228 255 255 255
-13.02991980596939 -9.67297650626816 47.02793127979026 255 255 255
1.9887534788797416 -13.330485174671734 42.92308799504359 255 255 255
-6.269820903557437 -3.771518622331697 39.059576129416946 255 255 255
-11.154062462130124 0.34015843836461757 41.54674107958665 255 255 255
-12.575857540230741 -9.203278780091795 48.1107417778088 255 255 255
-4.9284607420425015 10.880546155366254 54.317511567972595 255 255 255
-4.208726043609912 -10.606844412344207 48.88103083856786 255 255 255
3.5397069283792932 -7.655707816876442 45.9837884184203 255 255 255
-9.484037208421462 -2.987674019450532 38.131449617450144 255 255 255
-4.568983999095273 3.2417343256093676 39.50272400136747 255 255 255
-2.3552925272443903 4.24534878615384 38.96555859229743 255 255 255
-5.2633487010830295 -10.453986172284237 33.92325647697823 255 255 255
-6.0457176193271 -4.390554670543029 39.8540098681165 255 255 255
-7.082165011831911 -4.035536514180888 38.564328936131226 255 255 255
-4.48645332494191 -10.831465376936265 34.75406852352491 255 255 255
-8.01634195967659 -6.280561887645749 42.54968874874555 255 255 255
10.779535618988664 1.8711407348487943 34.931397783219 255 255 255
-14.141440734496896 -1.786531082805416 44.28737741920319 255 255 255
10.766283308365871 1.248119680654956 35.09409530881528 255 255 255
-4.695412642133053 -10.547044962895589 34.025238541405194 255 255 255
-6.427986067924149 -11.739388402878825 47.964356944357874 255 255 255
-3.680612526840924 3.534294381663426 39.75915977046939 255 255 255
-2.6531367429664257 4.814335981726866 38.8590711597451 255 255 255
-8.990668481811673 1.3199601896954387 39.925590747467076 255 255 255
10.609914550559894 1.0513656759923524 34.86433403943788 255 255 255
2.0816086729783825 -13.900283970227232 42.91378587863219 255 255 255
-7.595062159737858 -1.897346071317436 37.58507001550766 255 255 255
10.776025429911645 1.8892279666334297 34.913101880055216 255 255 255
-4.9141606649359995 -12.787432202065714 37.94995660918145 255 255 255
-7.585135545352126 -1.8997838985452118 37.556668326347854 255 255 255
-4.494779076652438 4.144441870585288 37.91276678317178 255 255 255
-6.89732263175113 -2.876551885163088 36.907336227453456 255 255 255
-12.065203269715402 1.2523071118358444 38.58329620981579 255 255 255
-12.771673414366738 -5.154831081682822 36.77054427025986 255 255 255
-25.256279108074697 0.4329826951666988 60.532934309669024 255 255 255
-5.971847056126718 4.532563788584871 36.23998362531708 255 255 255
-13.34147579619161 9.20876593295732 50.51945863560814 255 255 255
6.848792483315996 -2.173797078778818 42.52704125056818 255 255 255
3.194684200098141 -5.253648684949235 47.456277073189106 255 255 255
-12.192782181422393 2.017800318929147 37.330749852063086 255 255 255
-5.980462700840072 -10.147820881584012 33.008296736840784 255 255 255
-9.545485156642476 -5.548492658309815 40.147207365596046 255 255 255
-8.471373637042987 3.02930868653176 37.8221363622407 255 255 255
-6.5135179156437255 3.863160408135855 37.14356181268434 255 255 255
-8.847418750461182 -9.937694606969306 32.36302618067187 255 255 255
-7.424304541013252 -5.762948421099089 41.151417961868546 255 255 255
-5.571547945473791 -10.188944353024477 32.96048111349981 255 255 255
-12.712008669938285 0.8478810718854694 39.13644400549077 255 255 255
-11.773073926361173 2.485638125503375 36.04723020336528 255 255 255
-5.742517479548508 3.4362443345930904 38.65402067086975 255 255 255
-11.854218222271214 -4.933620402746115 37.90245512250509 255 255 255
6.819834694401268 -4.045082400490865 41.01316932861602 255 255 255
-10.062008268935811 7.161131628158861 50.577712842578386 255 255 255
3.9492536771293247 -11.185426450498166 43.565064430616694 255 255 255
2.043629394676123 -13.863220608796265 42.758559386613044 255 255 255
4.057591876235338 -12.170977098383453 42.9036080060178 255 255 255
3.5279238311362455 -8.38907128091995 45.69439254715172 255 255 255
-4.955420251910621 -7.0825814124661655 45.645894971059214 255 255 255
-9.75284746524571 -0.08175844740690956 40.02845119802258 255 255 255
-6.31424507841334 2.236549165049371 40.089902483128775 255 255 255
-2.8806584922663614 3.058381157855986 40.064573459077295 255 255 255
3.7021426947234417 -10.317074311870806 44.1271233041171 255 255 255
-14.703411499974552 -9.419775597483106 42.424202276810696 255 255 255
-12.318029592414073 -4.766514616014284 37.27697533405473 255 255 255
-13.37709012107231 6.63732172130421 43.70465957261175 255 255 255
-26.02488262397871 -1.2137467754990665 59.05314041706754 255 255 255
-12.645298403718838 9.595815384223963 51.78613724209254 255 255 255
1.9156325501837874 -12.08943081315067 43.2588250606547 255 255 255
1.8585788479142131 -11.62147812105046 43.58719251926613 255 255 255
-5.826583386086049 -5.490777632013022 42.38145044223642 255 255 255
-4.5901311115476195 3.245326831754765 39.76716444491171 255 255 255
3.2096514838544814 -5.2646616805956645 47.521547817171864 255 255 255
-14.03001985790878 -7.144618748175217 43.84118087381364 255 255 255
-5.27535343298351 -4.3871454807064705 40.6804914183129 255 255 255
-7.0933974629409775 -4.040418328056577 38.60362577705008 255 255 255
-4.839284183890919 4.368500595132548 37.29985244136234 255 255 255
-25.646503681291044 0.5555143845708669 61.792346974361394 255 255 255
-3.741184014320672 3.8429521937257443 39.22125062840151 255 255 255
4.246410846788279 -13.55046519155093 41.68446599987637 255 255 255
2.9569682848505905 -4.492487983550329 48.74589949886588 255 255 255
1.606138053109244 -11.34973525150998 43.50244552746187 255 255 255
-12.491554553944745 3.1561636934584456 38.16490417692804 255 255 255
-9.863873893200564 0.374668580805462 40.15349746541516 255 255 255
-8.969547246188977 1.4173771794022694 39.54549698959201 255 255 255
3.8781183946314255 -10.037947480153049 44.19398031894459 255 255 255
-8.344585481688215 -5.692235098439994 40.654590244872956 255 255 255
4.423391744765666 -14.525608851527743 41.101012872843086 255 255 255
-7.254462828514958 -8.864405995090962 50.520952531421386 255 255 255
3.538151924401796 -7.635183162258407 45.78061003458211 255 255 255
-6.297683408267599 2.8397464277974676 40.13548218910336 255 255 255
4.318689862973547 -14.032710495761563 41.33314492330402 255 255 255
3.7224661879247507 -9.788110265735417 44.60433485522514 255 255 255
-9.139137864428374 -3.574727405652017 37.28300705965341 255 255 255
-4.292747041844889 3.030356827182806 39.53732761062636 255 255 255
-7.781903703166522 -3.066913637890753 37.01807773613492 255 255 255
-8.370004468191285 3.8692310051657555 36.041744926910724 255 255 255
2.1449992194925915 -14.395283702338073 42.5896580395907 255 255 255
3.8929676739779544 -10.73451290760023 44.03389503635666 255 255 255
-12.77348699735606 -9.36852440150288 49.0248977586129 255 255 255
-13.342196320533017 6.236586910415692 43.00409693784828 255 255 255
8.594033619366426 6.354381614480965 36.0273957583188 255 255 255
-6.293176493953982 -9.90348132147904 32.51535842877561 255 255 255
3.7934820496344046 -10.283501979114542 44.299646881019065 255 255 255
-7.357703936581534 -5.246786435895231 40.972548279106 255 255 255
-6.693588730165052 -10.074343780806357 49.95463203772763 255 255 255
-14.672044576356269 -6.9775655175383875 35.82445451854415 255 255 255
-8.8131937095544 8.26988941807677 49.16071470943873 255 255 255
3.6577989969189244 -8.561807843254407 44.93856460499921 255 255 255
11.993742158066114 0.362304447964563 35.20009023738903 255 255 255
3.8228972482278776 -13.416450224055549 41.82535058615895 255 255 255
-4.968408689395039 -10.451223081993025 34.240405911058 255 255 255
-12.957252953398628 8.50432190364435 52.50327904842762 255 255 255
-4.979023602225363 -10.466477127099063 34.16710107864277 255 255 255
12.678513619753103 -0.02834296198773869 35.50922077973552 255 255 255
-13.214815669572204 11.229767650023783 46.135141557544955 255 255 255
3.9011812122653295 -10.424843096238215 43.538345426621234 255 255 255
-2.5668346539264 -12.586613268048136 38.98044106708605 255 255 255
-5.337316173584088 -10.096070447631831 33.671907237021045 255 255 255
-8.42979424041344 -2.9114364705599116 37.22977067978727 255 255 255
3.9129947304454555 -11.188632471851262 43.45671927032938 255 255 255
-11.550872529954054 3.389743622231947 37.292324895881436 255 255 255
-4.322259592781354 3.0506246277321063 40.017156806194485 255 255 255
-7.361138632682312 -8.475628005251371 51.22994837559278 255 255 255
8.999015785803653 5.667486610122196 36.034365363863564 255 255 255
-5.325475142529402 -8.36203180395913 50.4615277798234 255 255 255
-4.497689261258016 4.1487379708140635 37.93436716649624 255 255 255
-13.420950966065565 6.691812278493481 43.990411574385135 255 255 255
-10.308715461496915 -5.305130413672057 39.81396129019221 255 255 255
-6.5879754888915345 -2.796488743862081 37.189637419888264 255 255 255
1.8016921872398375 -12.745943010108242 42.57300099617987 255 255 255
-4.451384815295799 -12.439790986958368 46.809055474326776 255 255 255
3.926668615436672 -10.46717478396849 43.83497383721655 255 255 255
-5.542904939715269 -10.756494941217174 34.06573814841778 255 255 255
-8.303707142425095 1.182500148378189 39.56280350650715 255 255 255
-7.365376977498204 -5.261409225374778 41.09606713871732 255 255 255
3.851489152784411 -10.727160773186247 43.89166657372816 255 255 255
-11.134149427406339 -8.32559220338336 47.45834433041348 255 255 255
-12.920095059866956 -0.806202866693553 43.207544034462096 255 255 255
-10.146937242654337 0.9711377163200082 40.55091011977467 255 255 255
3.831309854826475 -11.2390537591082 43.38940941458612 255 255 255
11.597470998123372 0.7298301211160668 35.04174333644913 255 255 255
-15.000774147681987 -7.9885834073935 39.09889724064655 255 255 255
11.24339489929641 1.0910875373164157 34.72249418953248 255 255 255
-11.46199871180009 3.3770817164991027 37.15629967408827 255 255 255
4.3618303485288425 -13.724697810584468 41.12854629381256 255 255 255
-13.712488166456524 -5.3366427483449845 35.69036768151401 255 255 255
-13.035824297975148 -9.75206503633992 44.87991486274136 255 255 255
-13.263542718878151 -5.063875788083519 36.312008195637844 255 255 255
-1.3975963446245083 -3.290936269697525 50.91003053033231 255 255 255
11.927269054394994 0.36074920798780863 35.061865865694436 255 255 255
-5.987575926557591 4.529725517160449 36.311192720982724 255 255 255
-13.092806680283172 -9.689820664961715 47.17968414932782 255 255 255
-3.8683535353092147 -2.680044260590431 38.93289437474709 255 255 255
-4.485925683320238 4.1578528381060815 37.88461620118405 255 255 255
-9.688841523346246 8.15064976101236 52.07612914484166 255 255 255
-7.063236256767428 -7.492860383457005 46.007362997195756 255 255 255
-3.403967773116125 -4.617311207235439 41.40769186499671 255 255 255
4.2333211960317385 -14.058480487272954 41.19916454811779 255 255 255
4.222937077650289 -12.789921716031618 41.89151695716856 255 255 255
11.823406840775645 0.3511481490494804 34.891311662196486 255 255 255
-6.018144407792404 3.942324352132508 37.239230314645845 255 255 255
1.979378708352885 -12.092689796523743 43.52430685132842 255 255 255
3.367968225348487 -7.999644089801769 45.91443122827132 255 255 255
-3.5045026679093536 -5.560043034352089 43.555579045913156 255 255 255
-10.294002606931315 -5.2606804556837075 39.866251419494574 255 255 255
-14.095541922669696 8.962152418870165 52.6021763145043 255 255 255
-7.2508421628782616 -8.873875744555702 50.584320924663615 255 255 255
-8.739285622862955 -5.8648124205275245 40.54570285890648 255 255 255
-9.768308142082105 6.76071829641425 47.58838341119743 255 255 255
3.6345067929836974 -8.845237221909166 45.427999831083774 255 255 255
-4.124649014363701 -11.088849966508166 35.455768153658504 255 255 255
4.0532236868366835 -11.409599327151374 43.12750003826406 255 255 255
-2.2221319608792136 2.986115527112956 42.957207523611736 255 255 255
-7.166145129711153 -8.141010545672748 47.756205176125725 255 255 255
-7.581957512644036 -6.647176248331235 42.17879875485615 255 255 255
-5.971283406121356 4.5238965434694665 36.23745724383628 255 255 255
3.298141913849395 -7.517544887325522 46.18772462340084 255 255 255
-13.572379976077446 6.523105864204444 44.988013825638475 255 255 255
-5.0149749053868655 3.6805714343675917 38.48915355752006 255 255 255
-7.084988692658916 4.370178203586257 35.99939838292651 255 255 255
-6.579780825567635 -1.854642349689447 37.72366153900974 255 255 255
-9.517040449624988 9.012446982137824 52.01629309038329 255 255 255
-7.487816898217733 -2.769896159712032 36.952617942050644 255 255 255
-9.812144387322984 -0.8264962193979887 40.025092065868385 255 255 255
-3.829337370771614 -11.167437079818933 35.75502351079362 255 255 255
-9.782121048658695 8.281524292685262 53.31967563650361 255 255 255
3.8767140741781247 -13.878112923416225 41.45098204951185 255 255 255
-6.129176811516912 -16.63710272876505 45.33382285756561 255 255 255
-6.232399415921683 3.377925671182423 38.24982811541325 255 255 255
-3.8578009288263817 4.487097097036757 37.754930549205994 255 255 255
-13.374638425213433 -1.5397069957139362 43.85682988103333 255 255 255
-13.126425951139357 1.8942078130498727 36.67172051716356 255 255 255
-14.633936182348393 -7.065571298894826 35.75652642411847 255 255 255
6.325697375639369 -2.758578278720931 42.195193841882336 255 255 255
2.03737647054018 -12.49654878416225 42.971633110607655 255 255 255
-6.325174557599366 -2.808175615127877 36.76013320690974 255 255 255
-13.971261237183395 7.13571317235202 53.95703059754529 255 255 255
-14.810653758663063 -8.845237395675872 43.197682871724744 255 255 255
4.109625118320844 -13.150996608392557 42.052309433542064 255 255 255
4.374126543950361 -10.532611925471691 41.330866360604 255 255 255
-7.534673523693755 -5.002655151027027 40.510590234355206 255 255 255
-7.789844830514778 2.168936483668485 39.81518359229206 255 255 255
4.037928569227472 -11.39477112387467 42.946102948192355 255 255 255
-7.624068048031734 -8.691313695475758 51.027473494585024 255 255 255
-6.597664957020154 4.16651437619941 36.52831888315672 255 255 255
1.930772123249392 -11.635503482270432 43.92437812894225 255 255 255
-5.62457658603969 -7.214169990071461 45.70429924415529 255 255 255
-8.382789757099095 13.104668061527045 47.196568693425384 255 255 255
-12.17872155860956 2.002133645007877 37.23768492709894 255 255 255
-10.2973629592342 0.5411450355187136 40.79341430244208 255 255 255
-7.9823183339316355 4.413890121588406 35.80382681533076 255 255 255
4.034954440613535 -12.661785172809829 42.35776099241867 255 255 255
-3.226752356393709 1.4469433909217697 43.88898691181226 255 255 255
-8.947850736936195 4.046911347646969 35.982500543210115 255 255 255
-2.8699375588853484 -1.4551589911893934 41.53721276884042 255 255 255
4.3065926879666945 -13.286703742201944 41.59675934935875 255 255 255
-3.5948103974971506 -11.478980206819385 36.06671246000094 255 255 255
-13.417271851660162 -1.5230519777886566 44.082062067889495 255 255 255
4.22046998778503 -13.094502654929085 42.183902494983386 255 255 255
-17.014575527796836 8.26226423413026 48.290954956210456 255 255 255
-7.790684536676316 2.1610093395657097 39.8157477690738 255 255 255
-15.124704776069944 -7.381784887205025 40.524600812677186 255 255 255
-3.7320537880932845 3.788347061445438 38.86639071220283 255 255 255
4.57233459592237 -12.492944862466386 40.23536670169737 255 255 255
-13.706577211127515 -2.137575109760344 44.74416282057089 255 255 255
-4.737079177669558 2.7866409710547546 40.5371522799852 255 255 255
-8.888888974806289 1.8185074316485907 39.97116562975768 255 255 255
-7.658359006129313 3.2789613268214284 37.77565216589435 255 255 255
-14.238089964894147 -7.794585348679515 43.98031701810158 255 255 255
-17.081177181780326 8.302686575049849 48.49722713358214 255 255 255
4.156447864369352 -13.562781448675377 41.50066329796488 255 255 255
