ply
format ascii 1.0
element vertex 87
property float x
property float y
property float z
property uchar red
property uchar green
property uchar blue
end_header
-7.816119275379864 0.03336674853299346 45.935086706251326 255 255 255
-3.418335646739376 -2.792146083858046 24.316922558498558 255 255 255
-7.585407924528437 0.3531592382012132 47.339905082026014 255 255 255
-7.2312329099281305 -0.1048418297016438 47.65078632739109 255 255 255
-8.314645906074347 -0.09047107146986576 41.897310267116126 255 255 255
-8.036187798324466 -0.5169542553122852 43.99487657440265 255 255 255
-4.602066765533203 -1.6667218874280962 27.38032650390589 255 255 255
-3.4166989978456157 -2.704763078819821 36.59617259783516 255 255 255
-8.223532410403314 -0.3266374213935402 45.089076171486134 255 255 255
-3.344229407414646 -2.8824405637806394 26.552136383013433 255 255 255
-3.8653826208850632 -2.387108243705295 26.870426545471197 255 255 255
-7.469533879016008 0.32211170354359603 46.4607589960811 255 255 255
-3.20207466592202 -1.301599618469243 10.902856418306182 255 255 255
-3.446493876451678 -2.885261744733323 26.946899642511845 255 255 255
-6.011266151133744 0.8900380416108428 50.817768274350286 255 255 255
-6.262727383456788 -0.5766323919192965 41.465140121484694 255 255 255
-4.573630321676266 -1.4088434750146002 44.30893470286055 255 255 255
-6.398766890766131 -0.8109318849165317 29.085685642801604 255 255 255
-7.132782109573643 1.942631720438558 58.642686010620174 255 255 255
-6.932613676224468 1.9149806176338233 57.5392026365142 255 255 255
-3.7607842963609213 -2.2873362029440143 37.87306232260328 255 255 255
-13.443576616676214 3.3051800524029296 68.9651975227872 255 255 255
-25.034887856628696 17.938258931014282 222.7509932836843 255 255 255
-3.869420114170953 -2.1737154660894786 18.594230288582605 255 255 255
-4.161751461540604 -1.8659935997681651 18.433341684132944 255 255 255
-4.450607414186316 -1.8402836440604933 30.43630351585654 255 255 255
-3.33068386308859 -3.247962148835357 21.770815044652018 255 255 255
-7.178740010724607 -0.6732695000087138 36.66394918226261 255 255 255
-3.8762436482057385 -1.6785761967667612 15.140300734764315 255 255 255
-4.5522847833158595 -1.6648645250763516 27.056467877978303 255 255 255
-5.094735509677048 2.5680920638810627 55.33384513822025 255 255 255
-6442.51207356079 2993.2397967582256 31689.868700027077 255 255 255
-3.4480571202591634 -1.4316287227019027 12.05697433871413 255 255 255
-405.31345618036516 240.9513600716897 2489.8591643909594 255 255 255
-3.81418364802733 -1.929828676996005 15.624711400317246 255 255 255
-4.267608680912047 -1.8471796208470481 34.54243815899239 255 255 255
-3.828717095581673 -2.225250560347221 33.056263068472155 255 255 255
-3.2682325169809583 -3.6283918933492805 21.111494285232997 255 255 255
-3.5376764119241546 -2.4586262755427937 16.43516746436677 255 255 255
-3.1977036290735796 -3.3444014948310796 21.581293413839596 255 255 255
-3.427538258178038 -3.0669379175242653 21.72789742082002 255 255 255
-16.31630023333665 4.047236511216276 76.61913231622927 255 255 255
-14.006567542977443 5.898905413096893 96.0139310869114 255 255 255
-28.661974172550394 10.775040214986984 139.17905830900142 255 255 255
-7.024182484809222 0.34744750095287963 53.48507902159718 255 255 255
-7.315301119430692 3.137382387894234 65.42671297085782 255 255 255
-2.5102834182284512 -5.109041913567575 26.10550233852525 255 255 255
-4.65618960912261 -1.6234868806841565 39.24089440408331 255 255 255
-4.032080745026704 57.53425045970456 -142.34316518214177 255 255 255
-5.532460626589146 -1.1349048093329084 26.32732346071661 255 255 255
-6.238607610849476 -0.7685421104436466 39.46049787356868 255 255 255
-3.173947914957482 -3.4144802991184777 21.913901242077177 255 255 255
-6.772188152809249 -0.7590897359550395 35.78818155845138 255 255 255
-3.9977446759462794 -1.0195703012699766 12.902939093383587 255 255 255
-4.227087635941424 -1.6076136232912708 35.77131972199902 255 255 255
-9.204859393564812 1.6831256518740516 56.09966199232967 255 255 255
-3.8151882876613237 -0.9401988723399388 12.15368314243374 255 255 255
-101.94268618308578 63.774283815912746 639.5651230758766 255 255 255
-6.069090722033209 -0.3005834595009393 49.35255853224419 255 255 255
-3.40429159618907 -1.4336673363448462 11.90555556316177 255 255 255
-28.12649263956486 10.416024331765229 136.2898309495477 255 255 255
-3.8512926750876146 -2.1630297948673176 16.61429259853949 255 255 255
-7.546814596815116 -0.5479199864724313 36.71055071372235 255 255 255
-5.464987538857228 -1.1496590248833656 26.063867098174057 255 255 255
-15.735077214308195 7.460182948152722 99.95380334869517 255 255 255
-4.089800593917399 -2.09938740926142 44.76126842023503 255 255 255
7.076709560765158 -10.756262530860734 -62.841074930951194 255 255 255
-5.5608495689447786 0.9403753233690866 34.59896759085796 255 255 255
1.4155834643235343 -14.897936295816931 -61.08064707400803 255 255 255
6.912195141282888 -10.429272323782829 -60.838975462318004 255 255 255
-4.691313633683891 -0.3454585742557848 17.17995310599739 255 255 255
-2.551055504052483 -1.4620210248642336 8.566106035546138 255 255 255
-3.7570583810123517 -1.9935952337415952 15.714561602664201 255 255 255
-3.300924511467686 -2.827589593213485 28.955395660823907 255 255 255
-4.468555661665077 -1.224235113723581 14.778469319651892 255 255 255
7.48781968523116 -12.02327540278173 -69.16881244129327 255 255 255
-2.634342240766211 -5.000359756328679 25.833186971749225 255 255 255
-4.869862834352272 -0.8415231637291856 15.32675566302309 255 255 255
-5.573474154567476 -0.5873223992163586 30.842865963858387 255 255 255
-6.609069229302778 -0.7878021426468839 29.778905557109432 255 255 255
-11.236973784822922 8.949808447353965 -47.63869645731624 255 255 255
35.67530978812933 -18.352745798877514 -170.9358449953145 255 255 255
-3.143398760355369 -3.2537742863796018 26.39106369147067 255 255 255
-6.051682514256229 -0.8309682288448634 36.740911391163465 255 255 255
-13.671529869876776 4.61471534612284 76.56023599647406 255 255 255
-18.865920101074515 6.17912173034435 94.7394107975701 255 255 255
-13.808660302268594 6.103015364860955 90.93865042248628 255 255 255
