ply
format ascii 1.0
element vertex 88
property float x
property float y
property float z
property uchar red
property uchar green
property uchar blue
end_header
-3.7757535799819735 0.1955760324893903 22.18224669597266 255 255 255
-3.4156269005348587 0.3325302718441651 21.28011813950271 255 255 255
-3.2453557164378855 0.12119626190084003 21.38599245295033 255 255 255
-3.56088655061794 -1.183071324149597 21.413178232349058 255 255 255
-0.46638168707097755 -0.04662088859701186 15.554889994105304 255 255 255
-1.7609699277623452 -1.3299328898605753 19.2536234399208 255 255 255
-4.2627992596465285 0.018285160293981553 23.394214795722476 255 255 255
-2.4640036162663543 -2.1059612171078625 20.0188531438522 255 255 255
-2.9320511462918835 -1.751918727301617 20.737244855139778 255 255 255
-3.4209120414305647 0.32033291300070826 21.245349128867595 255 255 255
-2.5248621481780766 -2.090004035619484 20.178920869264875 255 255 255
-2.2157145354685475 0.47657048080518594 18.645541751350773 255 255 255
-5.620145778245852 -0.20139101324928796 24.866664871791635 255 255 255
-3.171898935292604 -0.13649720491875283 21.048413822158217 255 255 255
-1.9746759081450551 -0.48856823661951915 19.27065706558461 255 255 255
-5.56905795665517 -0.1214643904491339 24.832281211808695 255 255 255
-2.3198074018172257 0.7896865767634794 18.928889241668266 255 255 255
-2.278166642674631 0.7854579149663755 18.764627318590723 255 255 255
-1.8899137327165385 -1.0641483992478484 19.339931548381497 255 255 255
-4.463159798625927 1.3046956227268274 22.723380341675853 255 255 255
-2.3653240665176245 1.8714050653347174 20.705434786054862 255 255 255
-4.723696825720077 -2.626942988463717 23.072995683293968 255 255 255
-5.357880345309649 -2.3412054900127877 24.061627843502087 255 255 255
-1.0209160548447052 -0.18547452308651108 17.0302255963265 255 255 255
-5.124015700151761 -1.588447192378815 23.634649530280743 255 255 255
-3.8719646655225888 1.4776897966044895 21.61430741828349 255 255 255
-2.5658143068756707 -3.005947016190386 20.435977163250328 255 255 255
-3.000407343845162 -1.1394501601677296 20.760816031763984 255 255 255
-3.1846755824562574 -3.147776618908215 21.340969624349317 255 255 255
-4.612733088829736 -0.2521173766572485 23.62616974830424 255 255 255
-5.346026863936994 -2.336665551506075 23.83907286482074 255 255 255
-3.5378527515680847 -1.1895757307754256 21.25018349321726 255 255 255
-5.007818758546418 -0.1440116188866575 24.130297844729785 255 255 255
-1.5440563126123046 0.9125794995442187 16.55950011355399 255 255 255
-2.5981970315397933 -2.9447728529896824 20.444595192525277 255 255 255
-5.625876739512562 -0.7416903811895431 24.476566105686853 255 255 255
-5.127526091517798 2.608264870496378 24.90380683883951 255 255 255
-1.6890436777968618 -0.37497213812029684 18.69630069567663 255 255 255
-5.11379944657653 1.4386078778184923 23.88168315799442 255 255 255
-1.4488426712411817 -0.10073428381117011 17.84852576090621 255 255 255
-0.9514109200883798 -0.26714421443669956 16.06394054446978 255 255 255
-2.4301355300944767 -0.9506532370597125 19.90457308411784 255 255 255
-2.2405756010844082 -1.2226911450159241 19.653531992808873 255 255 255
-3.299495032379921 -3.7456369569684074 21.902512626826127 255 255 255
-5.932477351520678 -2.967180142453985 24.684045505801915 255 255 255
-3.294365256674254 -2.9732785305094964 21.37060687831117 255 255 255
-5.078106634691812 1.4787568798082322 23.65840410669575 255 255 255
-4.917973142517773 2.067737294845952 23.620183108524973 255 255 255
-2.676353455787221 0.2940544760515608 20.342351394679262 255 255 255
-2.0720800399989368 1.0432605234055243 18.329578839987995 255 255 255
-1.9504955739841139 -4.161568166475386 21.31358335515753 255 255 255
-2.3385477432299395 -0.6989968783790722 19.882275965885015 255 255 255
-5.411457650805143 -3.0425295355404813 23.984307234185316 255 255 255
-4.932287603534309 -0.8607653667825717 23.638253433613304 255 255 255
-2.4111397325934716 -3.0715681698532205 20.426300295081155 255 255 255
-3.39099321646474 -0.26174841413396566 21.51989960336729 255 255 255
-4.371874228652097 -0.3173811929674361 23.184744185880398 255 255 255
-3.499495241574877 0.8238633650333332 21.211816463983844 255 255 255
1.6688888802116317 1.8276941326415796 10.620359247714656 255 255 255
-3.917931567289681 -3.833174410521173 22.76593676454079 255 255 255
-3.0211426357163234 -1.1876996157475668 20.921669512886485 255 255 255
-3.237248113895868 2.3159087340180347 20.1971743154468 255 255 255
-4.934991441755941 2.0469400449578945 23.655082536042308 255 255 255
-5.525218790547634 -3.095081005417299 24.215993416383427 255 255 255
-4.949797038181851 -0.17004427230426114 24.133257808047723 255 255 255
-4.887250497314285 -0.8799301912022541 23.474094240397964 255 255 255
2.006281735058975 2.2265087000029955 11.982928271210039 255 255 255
-1.7539016815162805 -0.7961909601094591 19.446179526193728 255 255 255
1.8200365789765776 2.0023975935613327 11.167603404763264 255 255 255
-5.461918114359502 -2.7084241351492886 24.02245882055796 255 255 255
-1.0935173080629446 -0.4362838280829933 17.64344800398789 255 255 255
-1.1958632116567256 -5.379978347629212 24.017665327616367 255 255 255
-1.0259604194347876 -5.379870336172181 23.6895261047386 255 255 255
-6.20219107797365 -1.416313356997096 24.945848720840154 255 255 255
2.1000327640212033 2.3459764936266483 12.40533164861817 255 255 255
-5.67196863263329 2.9943811202135504 26.916920359370163 255 255 255
3.3479907850466626 3.6492881714662655 17.62126800316916 255 255 255
-3.1750937550356344 5.302414597775175 28.738562485431114 255 255 255
-2.083410336815291 -4.127104539716371 21.380389050466672 255 255 255
-3.6669305201018947 -2.6079359700412756 21.336489105304178 255 255 255
-4.448576550861057 2.223924319222233 20.98675500724281 255 255 255
-0.391826762820697 8.123085061605291 30.53283118684849 255 255 255
-5.6130044963012065 3.1227017129767827 26.5375955286331 255 255 255
-2.329374550100318 -2.4216285420719625 20.09687768959102 255 255 255
-3.5429111218626432 -0.33269912804667573 21.59134919121826 255 255 255
-3.9148293777919068 1.5194474008061747 21.71354932378839 255 255 255
-5.979638626476201 -2.291003559641304 24.071899928740404 255 255 255
-4.637256553201033 1.732182576422031 23.06223391290299 255 255 255
