ply
format ascii 1.0
element vertex 423
property float x
property float y
property float z
property uchar red
property uchar green
property uchar blue
end_header
-0.6149633950921375 -0.08605590121499311 -9.743225051149893e-18 255 255 255
-0.6134472652909951 -0.08962923529934343 -2.0816652283612767e-17 255 255 255
-0.6067000907639756 -0.08545747152040031 -5.391730749698415e-18 255 255 255
-0.5999523345706272 -0.09447315830332693 -2.3530427196746353e-18 255 255 255
-0.5913872366996733 -0.09471616784085632 7.800719281199632e-19 255 255 255
-0.5990408971324763 -0.08984978556274756 5.753649580279574e-18 255 255 255
-0.6466935904164346 0.016915470922383023 5.1377011086719355e-18 255 255 255
-0.6153978721225017 -0.08553107663764718 5.200466127736955e-18 255 255 255
-0.5955616214779852 -0.09787507346558035 -2.6543085593763707e-17 255 255 255
-0.607083657030541 -0.0860636922513969 -5.726505122472147e-18 255 255 255
-0.6435203224905965 0.04967470085416567 -4.336003364160227e-17 255 255 255
-0.5948583964750788 -0.10038894691707739 -5.269469078548393e-18 255 255 255
-0.6055632573384606 -0.07562559751029299 -1.0161501560406942e-17 255 255 255
-0.6019070510296479 -0.07760354281499329 -3.6147837242312015e-18 255 255 255
0.67133886962584 -0.01813266629392126 -4.1452809103658775e-17 255 255 255
-0.6290716198364364 0.04476831734677625 3.31038724603142e-18 255 255 255
-0.6280613641933888 0.0442794420875826 -1.9419843298334558e-17 255 255 255
-0.6295449887046585 0.04844480611606343 -1.931404693219928e-17 255 255 255
-0.6033809634355635 -0.022329338460825875 -3.2485143044516217e-18 255 255 255
-0.6071816758630472 -0.08131812099960857 1.3704698194718724e-17 255 255 255
-0.6029414802463124 -0.07909282598461273 -2.4994974176433973e-18 255 255 255
-0.6471043057531564 -0.028476787265249475 2.176716236627937e-19 255 255 255
-0.6547142930443302 0.04748751727842173 -8.218125829654309e-18 255 255 255
-0.6513573086701892 0.04935631669554107 -8.636730062287165e-18 255 255 255
-0.6592833665621666 0.036145818569335394 2.375426497584086e-17 255 255 255
-0.6509472643113438 0.04953267772661023 4.570962953022035e-18 255 255 255
-0.5999538567586731 -0.08157847400275656 -5.92371065256574e-18 255 255 255
-0.5845740105072884 -0.09169995559726268 5.7411728941243494e-18 255 255 255
-0.6070163649188287 -0.08176294208316365 6.93889390390723e-18 255 255 255
-0.6435478439495516 0.049618560525126996 5.56655309655222e-18 255 255 255
-0.6029353794369945 -0.07559723571509247 1.0408340855860843e-17 255 255 255
-0.595038849573887 -0.0907533934556486 -1.927445162670169e-18 255 255 255
-0.6483934985442111 0.04957103565214115 -6.093533614612634e-18 255 255 255
-0.6011859746767636 -0.06833639012256951 9.772936169569093e-18 255 255 255
-0.6597872282763377 0.04314494391637722 -1.7915223176466053e-17 255 255 255
-0.5709294873772898 -0.03005464483301551 2.4999376431552886e-18 255 255 255
-0.6084993706423025 -0.019536971083054664 -1.410673030898169e-18 255 255 255
-0.6033174936067366 -0.01763222134600012 -6.765614627802584e-19 255 255 255
-0.6602198256404779 0.04660905494431507 4.683760855248579e-18 255 255 255
-0.6039977361173321 -0.08107520974530585 -9.13632069234521e-18 255 255 255
-0.6057725383071112 -0.008386216216992728 -2.5180684052074954e-18 255 255 255
-0.6594764886050026 0.03580006053374214 -2.5418097161908643e-17 255 255 255
-0.6536977197452958 0.04542600638254455 -1.0114321927703957e-17 255 255 255
-0.6010670795958212 -0.07181482241790478 1.6491269534367384e-17 255 255 255
-0.6084586011004097 -0.010399795431273536 -1.7489382863737695e-18 255 255 255
-0.6281816798825506 0.04729107707860232 1.0598342130092932e-38 255 255 255
-0.635146565739661 0.04746750986255314 -2.286329490535353e-18 255 255 255
-0.6486922368328879 0.049493314360174165 6.227809243734641e-18 255 255 255
-0.605756304506993 -0.012764281621695192 -3.739505338570549e-18 255 255 255
-0.6053644500147106 -0.07895226827780567 2.97705848745254e-18 255 255 255
-0.634790818874953 0.04788861171583236 -3.4136052699617907e-18 255 255 255
-0.6546351260640604 0.04812644872414524 -2.319578230090269e-17 255 255 255
-0.6357850265203588 0.046709600360740657 4.609809398107651e-18 255 255 255
-0.6030843284750349 -0.06831080057495961 3.3143714639163874e-18 255 255 255
-0.5572059788288598 -0.05058590776382354 -2.2123870487958753e-17 255 255 255
-0.6041885855724792 -0.08608986017989856 1.4703309254225213e-17 255 255 255
-0.6310442607604829 0.04551979933866918 -1.2708619037135818e-17 255 255 255
-0.5807844945579391 -0.09718022765362522 -4.397034195762864e-17 255 255 255
-0.5745808001703707 -0.08863558323326087 -8.349214335827082e-18 255 255 255
-0.5530712153648475 -0.03335158512107153 -5.987724425645916e-17 255 255 255
-0.6382956762543464 0.0287887934704863 5.622950443707656e-18 255 255 255
-0.6056132255470109 -0.07211894459803828 -6.215446898274265e-18 255 255 255
-0.5687915656778675 -0.0431594146257845 2.798991232054476e-17 255 255 255
-0.5703650809926256 -0.09188690277046192 -8.308997221149404e-18 255 255 255
-0.6413011846216325 0.016205371737670865 -5.0257213909188374e-18 255 255 255
0.6720580084401339 -0.016040185561511267 1.6190962894814997e-16 255 255 255
-0.6467198080616889 0.01722517675398196 5.892144243709916e-18 255 255 255
-0.5704617040768228 -0.07356865524933476 -3.2722824546151356e-17 255 255 255
-0.5891427912057291 0.037753049083393775 1.6916141907432216e-18 255 255 255
-0.6044195655962739 0.00977937123293782 3.79772612655963e-18 255 255 255
-0.6021610001772663 -0.017318619570346448 -1.0419492620045704e-17 255 255 255
-0.6063150948448327 -0.07631241147426475 5.191140012811682e-19 255 255 255
-0.6567695429548029 0.05004955604227296 -8.980345183472725e-18 255 255 255
-0.6595127819912748 0.04513837384970578 -1.099154884102384e-17 255 255 255
-0.6537645455355484 0.04455215759294172 9.583818520023e-18 255 255 255
-0.5678955892436581 -0.0916018129585417 4.9869090556681556e-18 255 255 255
0.645008437520322 -0.013926975526237124 1.734996246678686e-17 255 255 255
-0.5532679192568863 -0.03240838427857632 4.8146446215551285e-17 255 255 255
-0.6599969500836582 0.04603392065486709 3.154789682936661e-17 255 255 255
-0.6054124163797014 -0.06948778118059011 3.725541282725477e-18 255 255 255
0.6444838344671222 -0.014223361159031262 1.0253304399848564e-17 255 255 255
-0.6463588481692076 0.021813270984748733 -7.175042785448451e-19 255 255 255
0.6507366345594144 -0.014727554029306453 -3.7560470290344486e-19 255 255 255
-0.6534459261905283 0.04172706702347245 -7.821760276113158e-18 255 255 255
0.6439612449480447 -0.014340396911098986 -2.0315152350785062e-17 255 255 255
-0.6463666956433533 0.01953525275923535 2.0942769232422428e-17 255 255 255
-0.6426765347006516 0.020448547161187016 4.7961496033686205e-18 255 255 255
-0.6020343648634744 -0.06973630629040503 3.857964929228001e-18 255 255 255
-0.6011000236986077 -0.07564630371860756 5.720482589257218e-18 255 255 255
-0.6335704732902742 0.022143182178959993 2.4626069470546943e-18 255 255 255
-0.6058987981257322 -0.017617623639531232 -1.847016987440983e-18 255 255 255
-0.6567494398837185 0.04976198628131677 1.6818130227319828e-17 255 255 255
-0.6021382078439074 0.024676388115736032 1.9529269966380433e-18 255 255 255
-0.6687944311258811 0.04387807572079746 -6.735833970017355e-18 255 255 255
-0.5747765425590934 -0.05654643320994384 -3.1899349665400405e-17 255 255 255
-0.558745822600943 -0.02657186736341067 2.5760552289657664e-17 255 255 255
-0.6315868616824053 0.045348538813193916 -3.4503866034224984e-17 255 255 255
-0.6429342592089625 0.023280810629669055 -1.0184777542971738e-17 255 255 255
0.6710956567252873 -0.02124277545561785 1.037054116554822e-18 255 255 255
-0.5861894922459763 -0.07717670152283035 1.080642050101738e-17 255 255 255
-0.6179711858612194 -0.06713730458549194 2.22756101217338e-20 255 255 255
-0.6569484782244458 0.05096871942927 1.8581573099373112e-17 255 255 255
-0.5978904294168212 0.024256034890516722 7.904740360482733e-19 255 255 255
-0.6339754475393543 0.03985028495700691 2.304336394802906e-18 255 255 255
-0.6044139337121578 -0.002647343862485224 2.1315857946445247e-18 255 255 255
-0.6283121602921041 0.0431833120192687 -4.224201048409791e-18 255 255 255
-0.582979447427338 -0.0008116384160479587 -1.45693642962161e-17 255 255 255
-0.6641774258542882 0.04658897730499552 -2.6161566752885706e-18 255 255 255
-0.6643473655225269 0.04586707916926463 1.7726088999521104e-17 255 255 255
-0.6679021943702499 0.04451083779887409 3.9740811999759494e-19 255 255 255
-0.5585042338093081 -0.06229723872208352 -6.488309120654099e-18 255 255 255
-0.586396994795055 -0.06055803292936686 -3.255735240138647e-18 255 255 255
-0.559700413410846 -0.050123259078041264 -2.983694033916723e-18 255 255 255
-0.6624486847508061 0.04313721025269284 2.4220906362756846e-17 255 255 255
-0.5749727396812376 -0.09743012850953266 -2.7755341483587782e-17 255 255 255
-0.6717933150034268 0.05294860813416104 3.24739125371348e-17 255 255 255
-0.5526380551329069 -0.05276672955547377 -1.0724958720704539e-17 255 255 255
0.650567735554293 -0.014467103784605011 5.418606562472215e-17 255 255 255
-0.6743190865080111 0.051724240369036695 -5.458721845077367e-17 255 255 255
-0.5705229264830607 -0.09640799795114222 5.2820950763254205e-17 255 255 255
-0.6228978532490865 -0.08947064242706884 5.5883015947695604e-18 255 255 255
-0.559271365312309 -0.08001914165917412 -7.963959503054455e-18 255 255 255
0.6729073206218658 -0.019160018990846097 -6.193340091160016e-17 255 255 255
-0.5752107272793519 -0.05616938650975401 7.830449462030414e-18 255 255 255
-0.6046058916225763 -0.019829494585068167 1.1274801991430043e-18 255 255 255
-0.5574631852343477 -0.06454306817933993 -1.5182232066147912e-17 255 255 255
-0.5702901601779703 0.03737598321863181 2.107948501261748e-17 255 255 255
-0.5590353139097607 -0.06459493267243233 -3.445881437755846e-17 255 255 255
-0.5787074125685603 -0.09990714446810679 -2.807960908264181e-17 255 255 255
-0.5711114777604871 -0.07474042501894163 -4.610953508934984e-17 255 255 255
0.6713899593899108 -0.021579223093877727 1.0436720672028204e-18 255 255 255
-0.5510966935063264 0.07503969286208426 -1.7070719701041663e-18 255 255 255
-0.5525342159775712 -0.059829466263191945 -2.877610544911474e-17 255 255 255
-0.6749003871485433 0.04732270010620849 -5.0083616451350405e-17 255 255 255
-0.621798261004755 -0.08546179946709218 8.242060645767882e-18 255 255 255
-0.5624974425729785 0.04028343571981036 3.4321450243004177e-17 255 255 255
-0.55118569307269 -0.023991510922326084 -6.035745706578741e-18 255 255 255
-0.6754697780186878 -0.013341568665616362 -5.2504870434365317e-17 255 255 255
-0.5593911543540367 -0.06458562885266858 7.727487352741543e-19 255 255 255
-0.5862171729451481 -0.0019324633813583832 6.573096727072697e-18 255 255 255
-0.5631336790224732 0.04028792895916117 -4.718508565799396e-18 255 255 255
-0.5682967145186709 -0.059026016698663926 1.9548172515394057e-17 255 255 255
-0.6045776719156235 -0.010704592109086251 1.6800931153636678e-18 255 255 255
-0.6798287385120823 0.016282983339012593 6.058151946152547e-34 255 255 255
-0.6163430943286929 -0.05446451323166903 -8.756943335128728e-19 255 255 255
-0.6331715068844507 0.020714292914724753 4.386226883921948e-18 255 255 255
-0.6045434546378791 -0.05679105305959733 -1.005610052313159e-17 255 255 255
-0.6046804016560019 -0.023991589594031745 1.4415718651096134e-18 255 255 255
-0.5692418319436379 -0.07412787770566766 -9.879019272580985e-18 255 255 255
-0.5525949501189363 -0.05978278261523941 -2.597091828209511e-17 255 255 255
-0.5754828790623102 -0.02825114321399212 4.044840652564689e-17 255 255 255
-0.6033417577470992 -0.008634844319964051 -6.359604720072976e-18 255 255 255
-0.6079339359136758 -0.08971907688960504 -1.6896334645897536e-17 255 255 255
-0.5382100276341585 0.04108564899787369 2.281949732962825e-17 255 255 255
-0.6005652633302684 0.0331278965726419 6.022413603741981e-19 255 255 255
-0.6085460641319311 -0.0569358348074511 5.092778389811028e-18 255 255 255
-0.5642199739996604 -0.09315686524877163 2.7550910317133884e-17 255 255 255
-0.6710971807700844 0.044016738123514004 -6.652329289162418e-17 255 255 255
-0.6065071301503255 0.009973717128006855 -4.60091318809425e-18 255 255 255
-0.6207265237385603 -0.06736338451423765 -1.2060947791098255e-17 255 255 255
-0.6322498436420086 0.009431179503728047 8.049305522711215e-18 255 255 255
-0.6076880837274046 -0.021936465125595814 -3.294660938461025e-18 255 255 255
-0.6020421019717165 0.013363293167074488 2.2841984592905818e-20 255 255 255
-0.6227563837744757 -0.0673381041312543 -1.819943188139432e-18 255 255 255
-0.5216426321873188 0.07860325996516221 9.033599525079679e-18 255 255 255
-0.585070941907548 0.04293386984022039 1.3991567676225423e-17 255 255 255
-0.5936671930869256 0.030990085892118466 1.6670711927028612e-17 255 255 255
-0.6751518386634798 -0.012480351902807487 -2.921190578034854e-17 255 255 255
-0.6021380037273144 0.04460239303418594 -3.7230869046977765e-18 255 255 255
-0.6223641845237463 -0.06787185060208295 2.080233175797063e-18 255 255 255
-0.6745520579576082 0.013211261179667276 4.0892182677155435e-17 255 255 255
-0.6323864821412124 -0.022899581255638592 -4.893393018150182e-18 255 255 255
-0.5569429914201106 -0.06887647206704176 -3.8762780538538705e-17 255 255 255
-0.6020216994789551 -0.07335038440122914 -6.5988541468414136e-18 255 255 255
-0.6013825518357478 -0.008686481944720293 -5.83065422633961e-18 255 255 255
-0.572764865921958 0.038574652364587986 2.239016665768654e-17 255 255 255
-0.5566071409819815 0.07289833419755379 -3.1019360718928886e-17 255 255 255
-0.5972206731624271 0.03946378159045862 3.2180217957668893e-18 255 255 255
-0.5998586555559443 -0.06730802171468395 7.181119762923933e-18 255 255 255
-0.5508144818588806 -0.08297577645414553 -1.9970073231365786e-17 255 255 255
-0.6470754601747524 -0.027313393191944733 -5.964058055974754e-18 255 255 255
-0.5805517397583297 0.04048027178130783 -2.0421352679194334e-17 255 255 255
-0.6355318384244324 -0.055112185216809155 -1.257104552564463e-17 255 255 255
-0.6186159606669297 -0.08652905114606299 5.9051350961513084e-18 255 255 255
-0.6798501557183564 0.01602483933554774 5.551115123125783e-17 255 255 255
-0.6564601930097113 0.043991376903435554 3.9772935810698544e-18 255 255 255
-0.5506277968862445 0.07913051291326345 3.296382369264652e-18 255 255 255
-0.5482019591888307 -0.08356546477326122 3.2103376146817575e-17 255 255 255
-0.6157686736867897 -0.009856859510002971 5.2719038857132664e-18 255 255 255
-0.6155540692184257 -0.019013366884374966 2.425462336928656e-18 255 255 255
-0.5883684708687311 0.04090591050689124 -7.87446767083342e-18 255 255 255
-0.6158688883567093 -0.0556919713853811 -5.4098394244794785e-18 255 255 255
-0.5278601318437265 0.0714478150948866 1.1581178129335717e-17 255 255 255
-0.6330010584046494 -0.020670934996674332 9.540762595200939e-18 255 255 255
-0.6046420693225382 -0.04916532117275538 9.425875540477162e-18 255 255 255
-0.5798967824950428 0.037928754709586454 -5.048481233325332e-18 255 255 255
-0.5620699762013429 -0.08971818454051343 -1.981360456137827e-17 255 255 255
-0.6354681412342178 -0.02237466759340245 4.081277371313816e-18 255 255 255
-0.604422742610269 -0.06703120701942564 -6.8488473354343546e-18 255 255 255
-0.6470022872412422 -0.025754952675765393 7.603329642710304e-19 255 255 255
-0.5635159477803721 0.03925185296381038 -6.878355653285766e-18 255 255 255
-0.5749159346192959 -0.044877853690582024 6.219001528867133e-19 255 255 255
-0.6076697503059381 -0.05501613960463344 -4.5158380559848554e-20 255 255 255
-0.6351046702257473 -0.021245398318848478 -1.882075606147816e-17 255 255 255
-0.628302501062671 0.024713300074509413 -4.112415970715847e-18 255 255 255
-0.6377009504344567 0.01192647971525682 -8.62039616194389e-18 255 255 255
-0.5846381146379633 0.038536246211478664 -1.575415857566649e-17 255 255 255
-0.6013732943291676 -0.004320963060411792 1.2190517929584644e-17 255 255 255
-0.6322430536710347 -0.06852990796365008 1.0313305641098701e-19 255 255 255
-0.5707052196877331 0.0014184976396517885 3.3830561619215534e-17 255 255 255
-0.5732550854902658 -0.013756582462356087 -3.633136845046312e-17 255 255 255
-0.5951942784789698 0.03695883011606171 -5.743644066154692e-18 255 255 255
-0.6744345437756036 0.0009459981236273181 1.9107979688504655e-17 255 255 255
-0.5358533825847372 -0.0472969368710053 7.317180999157e-18 255 255 255
-0.5988769415277084 0.03863021476585735 -9.966679237311874e-18 255 255 255
-0.5579194194854066 -0.09461417408785397 1.9493372693533476e-18 255 255 255
-0.6180359189237892 -0.0674287746573157 9.351266103858234e-18 255 255 255
-0.6244385281272176 -0.009292817794347858 -6.656616660223575e-18 255 255 255
-0.6332674372708191 -0.017203959800138707 2.0322607257917923e-18 255 255 255
-0.6205880645361476 -0.010735436855975404 1.2794693600718567e-17 255 255 255
-0.6021784266677283 0.009789805923100388 -5.781105412742835e-17 255 255 255
-0.610515761918248 0.037861203410827986 1.9600950030299934e-18 255 255 255
-0.6221299949484437 -0.08599013108948624 3.158106991870876e-18 255 255 255
-0.618101005499263 -0.013108329999990793 1.8704692117435015e-18 255 255 255
-0.6342084050025866 0.015115282129836248 -1.1194961975663446e-17 255 255 255
-0.6027453597157347 0.03072984944198243 -2.044696901813405e-18 255 255 255
-0.552810380799171 -0.08922556952466629 4.256913596436793e-18 255 255 255
-0.6428015832867217 0.02458761542952334 -1.0263700292616512e-17 255 255 255
-0.5353511401240253 0.016329211984636292 -3.255446496200868e-17 255 255 255
-0.5971788307055536 0.032620484317006544 7.29419438637451e-18 255 255 255
-0.5674536991598911 0.03635996226489511 -4.17176161780183e-17 255 255 255
-0.600103708560607 -0.07381577751060271 -1.2601861066378708e-17 255 255 255
-0.5857576501307693 0.04155413806697 5.3397053477464805e-19 255 255 255
-0.6161373908582423 -0.05462801653995386 -5.366622290200666e-18 255 255 255
-0.670578611303788 0.0001415100048446071 3.148140706650904e-17 255 255 255
-0.6323711804756444 -0.05549130939248115 -4.938240688717629e-17 255 255 255
-0.617415527938088 -0.05092410735492988 -2.4487677894136236e-18 255 255 255
-0.5690114772665393 0.03973827674871309 -2.0933077336608257e-17 255 255 255
-0.5335355583685408 -0.038677415437055634 -2.4441952424139957e-17 255 255 255
-0.5365680398453639 -0.017804825377602435 4.009830799632798e-17 255 255 255
-0.6003238727437294 -0.02426161171958837 5.37209131143466e-18 255 255 255
-0.6320883699543549 0.01920128611600064 5.17888519393765e-18 255 255 255
-0.5537537116022213 -0.08075183008949324 -8.812391732126213e-18 255 255 255
-0.6177062998862265 -0.014729926209854713 -2.812038515775401e-18 255 255 255
-0.5919757667586864 -0.0712958488911667 -3.977297525125059e-18 255 255 255
-0.5564741628920638 -0.0676341615849502 6.433733374547898e-17 255 255 255
-0.6001969697236688 -0.053785321531403724 -1.0105336727536494e-17 255 255 255
-0.6754570247555167 -0.030653625058429657 2.9371995526132754e-17 255 255 255
-0.5559934400447687 0.03906199982516941 2.4815201450149863e-17 255 255 255
-0.5585542238645174 0.040270524383258545 2.2384975392539686e-17 255 255 255
-0.6316357818575474 -0.0352371871449421 1.3999795287375655e-17 255 255 255
-0.6033211641936942 0.011414986841250419 -6.9567453397459e-18 255 255 255
-0.6356186072233952 -0.032871253347808646 1.2285369752724677e-54 255 255 255
-0.5536057172450467 -0.029954367052455116 -4.152811400531671e-17 255 255 255
-0.6322366879651383 -0.01551582460921147 1.0716920357254567e-17 255 255 255
-0.6054187039116514 0.011585322547667972 -1.6963132290060194e-18 255 255 255
-0.5945536363556078 0.037031189736898375 1.16013239489326e-17 255 255 255
-0.6738567069464451 -0.009963456656694044 -2.168605853476697e-17 255 255 255
-0.5668331490158304 0.037319792766339246 2.637084225478436e-17 255 255 255
-0.6509260332338297 0.03968415066474443 -2.1999912036686728e-17 255 255 255
-0.6225713619186616 -0.021257819598458016 1.2105567635063764e-17 255 255 255
-0.5815785465852291 -0.06041893956725982 -1.725580176939424e-17 255 255 255
-0.5330075356517958 0.018164973674705504 -4.506301102868018e-17 255 255 255
-0.6069092045767226 0.028633149350782056 -1.4936077113422169e-19 255 255 255
-0.6059399759028746 -0.021960346822499855 -5.948621772300199e-18 255 255 255
-0.5499498330469849 -0.0226578142977861 -2.1853956288426283e-17 255 255 255
-0.5546702284789629 -0.09237790815244244 -2.4623562757707105e-17 255 255 255
-0.5958346591063295 0.035761985642089156 -3.275983390098912e-18 255 255 255
-0.550122000044576 -0.05655243456182494 -6.4900780748597666e-18 255 255 255
-0.5588989726326781 0.04008042818300737 -1.3368178033875171e-18 255 255 255
-0.6073209302127472 0.019700732970719413 3.76417178858502e-18 255 255 255
-0.556208615321434 -0.029058919387935297 1.4745776658320837e-18 255 255 255
-0.5582075017170072 -0.07773084597812012 2.2478732251596905e-18 255 255 255
-0.6030612372470355 -0.07174267924485932 -4.462485431275512e-19 255 255 255
-0.6220138835180152 -0.05056533365290114 3.30991527607914e-18 255 255 255
-0.621915444180988 0.017122424514472705 -3.165076794939744e-18 255 255 255
-0.57325347981948 -0.020311212419527866 1.4655726688436177e-17 255 255 255
-0.5576080273364188 -0.09855251961396189 -5.92099663223656e-17 255 255 255
-0.5320360864315464 -0.10189246585173663 -6.50613311535893e-17 255 255 255
-0.5828978874229782 -0.05150735490473138 -6.076974558153063e-18 255 255 255
-0.5353037551330179 -0.04420435538878565 -1.1504245773115139e-17 255 255 255
-0.573608632095653 -0.10043128720690792 3.0843306699263874e-17 255 255 255
-0.582248076556529 -0.06361437461703146 -3.3907495167967284e-17 255 255 255
-0.5786232210591414 0.04289384777149137 1.161514577340765e-17 255 255 255
-0.554072562461082 -0.06884879169782686 -1.8227108674615755e-17 255 255 255
-0.5815048771699229 0.02328695799416098 1.438771130503022e-17 255 255 255
-0.6733671088581619 0.0027903545319475785 6.829289196164112e-18 255 255 255
-0.6821416678881401 0.0005741219989663362 -2.147802467178192e-17 255 255 255
-0.5996237227069919 -0.08691117945170174 -3.8463923498517894e-18 255 255 255
-0.6323895703240255 0.019359571639434765 1.065639053234187e-17 255 255 255
-0.634556637329409 0.020406128984137597 1.2129717913884347e-17 255 255 255
-0.6059301539979107 -0.0505464646535374 9.139320495474392e-18 255 255 255
-0.5485905505725714 -0.08750213150522321 5.587246672803613e-19 255 255 255
-0.6154162353869376 -0.009763013476739697 3.4732761539967274e-18 255 255 255
-0.6795043963116739 0.0011237978901905785 1.1122637228657057e-16 255 255 255
-0.5722855237889055 -0.05229042632016842 -3.378494472672682e-17 255 255 255
-0.5936381887080905 -0.023307702289740655 -1.0498751588712356e-17 255 255 255
-0.674585830966356 -5.822089438436162e-05 6.44745287096906e-17 255 255 255
-0.6806064515928234 0.0029650732402145595 -8.998941058667095e-17 255 255 255
-0.6247632032117282 0.03192129987877387 -3.7654856921231e-19 255 255 255
-0.6014786442608389 -0.013635369123366603 -1.0341328163114634e-17 255 255 255
-0.5940673629550907 0.029942737159134192 2.4386782453812318e-17 255 255 255
-0.6227492007112655 -0.006818921266507091 -2.887683505883851e-18 255 255 255
-0.5851190476764551 -0.023320830408407024 -8.061281500836502e-18 255 255 255
-0.5181769946602943 0.055854032993122193 -1.110156828892175e-16 255 255 255
-0.52728686444423 0.04878149672143128 -2.2237019260995584e-17 255 255 255
-0.6440865436657345 -0.02809330324615204 -7.44098995360592e-18 255 255 255
-0.6761198045916929 -0.020104575878795387 4.96436735966739e-17 255 255 255
-0.551316165813629 -0.0662022893671703 -2.4765621833543652e-17 255 255 255
-0.531248828304646 0.06438325318364457 -5.38425072548453e-17 255 255 255
-0.5556985633039931 0.039181610573158866 -1.3468125159158282e-17 255 255 255
-0.5483698688918024 -0.08810117787653564 1.382794420694947e-17 255 255 255
-0.5730512378886913 -0.026887417054934755 -1.7552964122387413e-17 255 255 255
-0.5302084725963206 0.011837486929722625 -2.906036917382678e-17 255 255 255
-0.5722247181175831 -0.09655227440229656 -1.3826012141032339e-17 255 255 255
-0.6069872077640918 -0.06907770830542763 3.469084746005201e-18 255 255 255
-0.5170879963692973 -0.07270547687656222 -6.93501318706034e-18 255 255 255
-0.5528367565918783 -0.08927029300464165 -7.410001153155125e-19 255 255 255
-0.5883869567311758 -0.052249589411009774 1.1358249717316456e-17 255 255 255
-0.5117192340430223 0.03800237416364685 -1.2600905280289411e-16 255 255 255
-0.6229094865549077 -0.05464313658793028 1.2000264527695277e-17 255 255 255
-0.6229007028173182 -0.015224390243884736 -2.2410669361737026e-17 255 255 255
-0.6428178199875179 0.02119982330762936 -2.6800797243359616e-18 255 255 255
-0.6804882970907935 -0.01341877904931701 1.71017389802522e-17 255 255 255
-0.5297371702408017 0.012339727111539144 -2.4256745792674702e-17 255 255 255
-0.5229729479236553 0.012413604057342606 -1.9531845742244202e-18 255 255 255
-0.5663457561668743 -0.09470607353924766 9.426218141051378e-18 255 255 255
-0.5318073205441383 0.059030900774625125 -9.731192107410768e-18 255 255 255
-0.5144974721263735 0.010832112170477104 -4.309836946229543e-17 255 255 255
-0.6057112710013531 -0.07019114169788394 6.870370428635136e-18 255 255 255
-0.5498735303400538 -0.07303015592544788 3.492052828358045e-17 255 255 255
-0.6224673774691989 -0.009477349645077507 -5.4238138642556054e-18 255 255 255
-0.5915523906735227 0.037470217787145224 1.5927157103466236e-17 255 255 255
-0.6355451033120765 -0.04285753661796828 -3.2246716449804113e-17 255 255 255
-0.5949330800590092 -0.020647020985077535 1.148083450227549e-17 255 255 255
-0.5049581606844902 0.04651179354659363 -1.6287937852663276e-17 255 255 255
-0.5892617477394247 -0.05308624162790272 -1.6614978216257754e-17 255 255 255
-0.551058859585649 -0.07062670030916662 3.7844940776041336e-17 255 255 255
-0.5395999263206844 -0.0954292922011671 9.121027829971114e-17 255 255 255
-0.6084176242128256 0.028961589858068938 -3.1160388254076297e-19 255 255 255
-0.5924679403709411 -0.010970058149401015 1.3231882749574821e-17 255 255 255
-0.5281240725900388 0.06159033806667142 3.4965841213568475e-17 255 255 255
-0.5981118301685764 -0.0492032639265824 2.266100986987333e-18 255 255 255
-0.5275394770138999 -0.03853394572310822 5.011118597589386e-17 255 255 255
-0.6049333022881427 0.03203507645257283 4.2955601883145937e-19 255 255 255
-0.6815848758825859 0.00476636080504824 3.1762012979792135e-17 255 255 255
-0.520434933330504 0.057900079397745656 -5.412945412818441e-17 255 255 255
-0.5133767003131513 -0.03227204541648959 1.4070220316915804e-16 255 255 255
-0.6226177845619261 -0.01262239840523347 1.388449315026259e-17 255 255 255
-0.5321995235280823 0.022478958930124936 -6.521986604665084e-17 255 255 255
-0.6043081480888083 0.013580282196329322 3.818890489989479e-18 255 255 255
-0.5300979760416061 -0.02621125090039776 8.263313702758015e-17 255 255 255
-0.5530304983058361 -0.06697724560392003 -2.526868702619e-17 255 255 255
-0.5113566286933444 0.009375607698271067 -1.7279888365224941e-18 255 255 255
-0.5890324547303462 -0.04578388736492656 -4.827767619892797e-18 255 255 255
-0.6346066056708402 0.006714751508161591 1.1472592186954655e-17 255 255 255
-0.681677880138401 -0.021051813417443454 -4.742470189969767e-17 255 255 255
-0.5929704889841908 -0.07252315283521 1.188505688080822e-17 255 255 255
-0.5675753509758139 -0.10201925199986095 1.5541895314079176e-17 255 255 255
-0.6293734483362682 -0.045204864306606994 1.4190224252716684e-18 255 255 255
-0.6754077145882386 -0.00659869830658148 -3.069299247068701e-17 255 255 255
-0.532423190070786 0.013399355922123221 -2.724233939226853e-18 255 255 255
-0.5196735633158949 0.06857171624202053 8.455496516391407e-18 255 255 255
-0.5864483494832367 0.021164029945911152 -2.5198702089250565e-17 255 255 255
-0.5476821190548059 0.07860794488262556 8.035272420262594e-18 255 255 255
-0.5499798633904025 -0.06523368070373961 -1.1150983600845439e-17 255 255 255
-0.6182980969676527 -0.007535442556462966 4.4087133942326335e-18 255 255 255
-0.5187423563125854 -0.03614865950000427 -1.504191416826177e-16 255 255 255
-0.6350449351137979 -0.09451739623737168 -3.103299683955365e-17 255 255 255
0.6756292084915546 -0.026074548961360924 2.466821025594291e-18 255 255 255
-0.5329652390457487 0.005617744330208463 -1.8659763886853143e-17 255 255 255
-0.6016207361224442 -0.07872091076451924 -1.1393339304240921e-17 255 255 255
-0.6168440901848947 -0.06995319688025195 2.052836001487403e-17 255 255 255
-0.5231168473451101 -0.07231394474468444 -5.551115123125783e-17 255 255 255
-0.5205736473398312 0.052875654433924626 5.2682344200640814e-17 255 255 255
-0.6045015505482306 -0.01534921753013675 -2.528997794829437e-18 255 255 255
-0.6802157691055345 -0.014076705878832137 5.034027887703346e-17 255 255 255
-0.5115775473977643 0.003788170420160386 7.749822824329199e-17 255 255 255
-0.5329272004793839 -0.042853734734037405 -2.7755575615628914e-17 255 255 255
-0.5318958190899851 -0.08273476832978603 -1.3866135866712427e-17 255 255 255
-0.6803483689112383 -0.009030672283510451 2.7986293627224445e-17 255 255 255
-0.6358346063882474 -0.012780786793833439 -1.2939782490537795e-17 255 255 255
-0.533674405102688 0.010994026371320548 9.774066000325088e-18 255 255 255
-0.6190211795357953 -0.03895886364324759 -1.06083930573094e-18 255 255 255
-0.6747452057001592 0.006296348036035482 -4.022743204783412e-17 255 255 255
-0.5148060827190734 -0.059177570327555745 -6.920663868348764e-17 255 255 255
-0.6151305165011328 -0.0016974759584620527 -5.76383407121538e-18 255 255 255
-0.6788686168041367 -0.010349884356170404 -1.3108371428714159e-17 255 255 255
0.6817248796797167 -0.031469586658805386 -1.4983141989098423e-16 255 255 255
-0.5985123600908233 0.01795071691793013 -1.2014490826611077e-17 255 255 255
-0.5158956462035246 0.05166786703646198 3.006318065606275e-17 255 255 255
-0.6343357088049931 -0.0450670093031055 -2.94970292999327e-17 255 255 255
-0.6047407394862037 -0.0520395604912699 1.4259727286085333e-17 255 255 255
-0.5321360970634981 0.034763540762189446 1.7556084200478377e-17 255 255 255
-0.6002820025585927 -0.04254023551440227 1.597491409699811e-18 255 255 255
-0.5323054113034216 -0.06295405345207676 2.6757452184649268e-17 255 255 255
-0.633067680823317 0.01162950670376736 -1.7230904863316788e-18 255 255 255
-0.6007894435553129 0.015373659110398912 -6.4484060829097465e-19 255 255 255
-0.5943672756419704 -0.03643891700248416 1.1325983167819932e-18 255 255 255
-0.532758616160272 -0.037145395191754596 -4.44046982947077e-21 255 255 255
-0.5322979672132802 -0.06309783456665823 5.551115123125783e-17 255 255 255
-0.5297825830063481 0.038369751453629586 1.0607055184134672e-17 255 255 255
-0.5988910984660913 -0.051459402456824115 -1.1191882185392063e-17 255 255 255
-0.5928341791651217 -0.005292945928952613 2.7556436772520385e-17 255 255 255
-0.6346397818874769 -0.06303649065230188 1.3619400487567049e-17 255 255 255
-0.5345687417799472 -0.08723856004186205 1.2862729336296933e-16 255 255 255
-0.5308428465733877 -0.018226934552079913 1.293366202200735e-17 255 255 255
-0.5822771088983223 -0.06474402509008635 -9.642540114561738e-18 255 255 255
-0.5308019909448295 -0.018245699827783003 9.37215311304533e-17 255 255 255
-0.5189267824453394 0.0717167611650705 -5.551115123125783e-17 255 255 255
-0.6784496990486828 -0.010093429373417666 6.853579939190958e-18 255 255 255
-0.5216219482311101 -0.0334440378132402 -7.414782631149775e-17 255 255 255
-0.604844727876049 -0.06999141456585821 1.6563169697770917e-17 255 255 255
-0.5490511298639862 -0.06722147145596434 3.4891849368453507e-17 255 255 255
-0.5848308469218805 -0.05177602794437353 -1.0737146477173576e-18 255 255 255
-0.5087234434022312 -0.08959519300475986 -4.1415012245535315e-17 255 255 255
-0.5924417247317636 -0.023110830731250757 6.96816474518735e-18 255 255 255
-0.5737701362106791 -0.057684187642521846 4.1792586423435655e-18 255 255 255
-0.5945317583264611 -0.054461376298728964 6.5614750193328314e-18 255 255 255
0.6825202684023917 -0.026407760412155635 -1.296702126838141e-16 255 255 255
-0.545398802691175 -0.10080203212643819 -6.889584854487886e-17 255 255 255
-0.527976106151579 -0.014568222009155208 5.3413693316327997e-17 255 255 255
-0.5939045876891281 -0.04106656234978386 2.0685729265254634e-17 255 255 255
