ply
format ascii 1.0
element vertex 81
property float x
property float y
property float z
property uchar red
property uchar green
property uchar blue
end_header
-21.70790596477144 0.966148427342436 127.70043982287314 255 255 255
-11.089559175234255 -8.776464921614968 79.90024148093079 255 255 255
-21.554699492001802 0.6289107496128272 142.2255108718299 255 255 255
-30.725203811883958 0.7683326023244351 155.0328139980338 255 255 255
-13.205741604151635 -4.337662731548921 79.18799421476875 255 255 255
-14.889618692769078 -11.065891367951023 161.243931127086 255 255 255
-11.380453922709064 -9.477854255329627 91.52852164882165 255 255 255
-12.74154446995099 -7.464026799580497 89.51285583709738 255 255 255
-22.763963538013503 -5.6503083032202355 259.80458471465124 255 255 255
-14.243339824440845 1.2141219827662284 88.61020420793102 255 255 255
-7.801403271981089 -3.082107568439264 26.91637085439539 255 255 255
-12.784716026394982 -10.33047845775877 101.22701942735854 255 255 255
-8.607528488444162 1.7325876321669393 72.66597804537541 255 255 255
-16.975249458502514 -0.8325895182661589 112.70309384947079 255 255 255
-16.760502377995664 -4.234116381963683 163.27357777052214 255 255 255
-23.460281683080417 -2.236259666231211 107.09308923433164 255 255 255
-8.93703967674843 2.892971031428492 73.22257546513869 255 255 255
-5.270915318485169 2.829909361433866 55.959680069754285 255 255 255
-8.453598269990906 2.771940767574437 69.91857136829455 255 255 255
-14.71006913117314 -8.204836444794278 149.49287201496512 255 255 255
-15.0583735934833 -8.192564164719414 73.20110371959038 255 255 255
-19.24073229729736 -8.258659874794317 86.1119931332727 255 255 255
-9.296434940587545 3.411816949523175 52.07232393855166 255 255 255
-13.6365960187238 -5.126551109580059 93.99810061054033 255 255 255
-13.542658399916744 -13.00782888437394 89.74346470167752 255 255 255
-19.76891388091875 -8.488565711389354 87.90328648134098 255 255 255
-4.956628199528891 2.8038975732244538 53.509941578982506 255 255 255
-11.262002083527019 -19.794599798452726 116.01496429008373 255 255 255
-15.264344276878518 -3.503820388299784 168.72645828528326 255 255 255
-16.333606982162472 -6.6973971718675385 64.67260868391 255 255 255
-10.992863048220848 -0.9001249558894733 135.53374137786932 255 255 255
-18.937612807782113 11.883563001569904 115.0227873057816 255 255 255
-16.614287679170996 -8.180458990833033 68.82551478873161 255 255 255
-13.062238966393517 -5.076033798542821 106.5333686775833 255 255 255
-12.237997422486089 -6.5839950212268725 106.64998977220498 255 255 255
-14.882375191765018 -16.38529289639113 97.45509077876319 255 255 255
-18.944962303385932 -9.282903703166202 78.51751667851609 255 255 255
-13.080285346401295 -8.950136700574765 61.53307801312379 255 255 255
-11.837606987618772 -12.21864700775975 81.02586655288657 255 255 255
-13.791054108401104 -12.114919467529559 88.60097142002013 255 255 255
-10.421287080462811 2.9201804494321624 48.6714821414824 255 255 255
-17.399203843608767 1.7165562100908343 132.51640554935022 255 255 255
-16.920575171682856 -5.089138934062109 143.50969174904154 255 255 255
-19.93463794691506 -10.978902477835769 87.97257838603328 255 255 255
-17.956385651406176 -3.1311032463086645 85.95573127458798 255 255 255
-12.838739597339714 -15.829157484641298 107.05833694273748 255 255 255
-19.374320546881755 -1.5915005386995453 122.96211347034996 255 255 255
-12.328423051238431 -13.099111526750047 86.35145828431773 255 255 255
-27.649379306222315 -2.112063428656242 146.63024420831212 255 255 255
-11.021520332587984 -3.666522305377402 93.90437675034754 255 255 255
-11.76816191596939 2.635680093860849 71.52714140360301 255 255 255
-13.807888782483307 -5.370407429567417 95.20010394809475 255 255 255
-14.471291126708776 9.526836301420142 89.75564965368449 255 255 255
-17.210072050118313 0.027887366885541817 140.21351486946853 255 255 255
-5.329097752118165 3.166702128684324 68.98942112227199 255 255 255
-10.099166909034269 4.043552751091405 48.55226289608554 255 255 255
-19.715179213478407 -10.816080843653952 86.01555665591673 255 255 255
-9.33945730438576 4.776109971907402 58.84156652460845 255 255 255
22.92763035457157 -35.18920883920762 -198.91720036338054 255 255 255
-19.135510534195106 -9.304032700503248 83.85590845658703 255 255 255
12.773684239733655 -50.513153090735905 -222.64136023695033 255 255 255
-13.730354939234278 -5.596711315892099 220.7727559320726 255 255 255
-4.487363012346255 0.9414315675385394 27.855720327977266 255 255 255
-1.8844315001156922 -0.11265282660830597 5.7846727818897765 255 255 255
12.421565205112843 -47.893354745622766 -214.07244898188995 255 255 255
21.013063599585145 -32.01295522269192 -180.68447839331063 255 255 255
-15.33705413025065 -7.933577393204333 64.89205923562729 255 255 255
11.4873694772975 12.4784060631247 52.31006198126464 255 255 255
-10.826986541056215 -8.895781116184963 96.1493528167405 255 255 255
40.81127852998873 -66.05089335912902 -368.1296639418886 255 255 255
13.599029261041848 -56.46718408483464 -240.81347582605542 255 255 255
-2.2061485824243205 -0.23428553501650856 6.7335861686551715 255 255 255
-2.407074056664988 -0.10429437080477176 8.850026185268831 255 255 255
-30.409548748482386 -2.6735582195846734 137.58077195756994 255 255 255
-17.76608186979976 9.585634420100977 84.11985581976379 255 255 255
-11.765357676032336 -11.879968686941258 100.1749677971619 255 255 255
-17.0599119603209 -1.6682667025195004 103.96360153689328 255 255 255
-9.343990045605322 3.4886597426451056 52.00237913703591 255 255 255
-2.167985367925837 -0.12989299694177872 6.7578062204585505 255 255 255
-9.903981867757809 3.564023932657639 49.39490181276289 255 255 255
-9.706608022003984 4.673481970845428 63.43994673744222 255 255 255
